ply
format ascii 1.0
comment Created by Open3D
element vertex 1916
property double x
property double y
property double z
end_header
-0.13903 -0.081417 0.421
-0.13972 -0.081417 0.421
-0.1404 -0.081417 0.421
-0.14109 -0.081417 0.421
-0.14177 -0.081417 0.421
-0.14246 -0.081417 0.421
-0.14315 -0.081417 0.421
-0.14383 -0.081417 0.421
-0.14452 -0.081417 0.421
-0.14486 -0.081224 0.42
-0.14554 -0.081224 0.42
-0.14623 -0.081224 0.42
-0.14691 -0.081224 0.42
-0.1476 -0.081224 0.42
-0.14828 -0.081224 0.42
-0.14897 -0.081224 0.42
-0.14965 -0.081224 0.42
-0.15033 -0.081224 0.42
-0.15102 -0.081224 0.42
-0.1517 -0.081224 0.42
-0.15239 -0.081224 0.42
-0.15307 -0.081224 0.42
-0.073891 -0.077813 0.399
-0.074541 -0.077813 0.399
-0.075192 -0.077813 0.399
-0.075652 -0.077618 0.398
-0.0763 -0.077618 0.398
-0.076949 -0.077618 0.398
-0.077598 -0.077618 0.398
-0.078246 -0.077618 0.398
-0.078895 -0.077618 0.398
-0.079743 -0.077813 0.399
-0.080394 -0.077813 0.399
-0.081247 -0.078008 0.4
-0.081899 -0.078008 0.4
-0.082551 -0.078008 0.4
-0.083411 -0.078203 0.401
-0.084064 -0.078203 0.401
-0.084718 -0.078203 0.401
-0.085584 -0.078398 0.402
-0.086239 -0.078398 0.402
-0.087111 -0.078593 0.403
-0.087767 -0.078593 0.403
-0.088424 -0.078593 0.403
-0.089081 -0.078593 0.403
-0.08996 -0.078788 0.404
-0.090619 -0.078788 0.404
-0.091503 -0.078983 0.405
-0.092163 -0.078983 0.405
-0.093052 -0.079178 0.406
-0.093945 -0.079373 0.407
-0.094608 -0.079373 0.407
-0.095505 -0.079568 0.408
-0.09617 -0.079568 0.408
-0.09731 -0.079958 0.41
-0.098456 -0.080348 0.412
-0.099128 -0.080348 0.412
-0.10028 -0.080738 0.414
-0.10096 -0.080738 0.414
-0.10212 -0.081128 0.416
-0.10404 -0.082103 0.421
-0.10423 -0.081713 0.419
-0.10491 -0.081713 0.419
-0.10559 -0.081713 0.419
-0.10729 -0.082493 0.423
-0.10823 -0.082688 0.424
-0.10867 -0.082493 0.423
-0.10936 -0.082493 0.423
-0.11005 -0.082493 0.423
-0.11074 -0.082493 0.423
-0.11142 -0.082493 0.423
-0.11212 -0.082493 0.423
-0.1128 -0.082493 0.423
-0.11403 -0.082883 0.425
-0.11472 -0.082883 0.425
-0.11542 -0.082883 0.425
-0.11583 -0.082688 0.424
-0.11653 -0.082688 0.424
-0.11722 -0.082688 0.424
-0.11791 -0.082688 0.424
-0.11832 -0.082493 0.423
-0.11901 -0.082493 0.423
-0.1197 -0.082493 0.423
-0.1201 -0.082298 0.422
-0.12079 -0.082298 0.422
-0.12148 -0.082298 0.422
-0.12217 -0.082298 0.422
-0.12285 -0.082298 0.422
-0.12325 -0.082103 0.421
-0.12394 -0.082103 0.421
-0.12462 -0.082103 0.421
-0.12501 -0.081908 0.42
-0.12569 -0.081908 0.42
-0.12638 -0.081908 0.42
-0.12706 -0.081908 0.42
-0.12775 -0.081908 0.42
-0.12843 -0.081908 0.42
-0.12912 -0.081908 0.42
-0.1298 -0.081908 0.42
-0.13048 -0.081908 0.42
-0.13148 -0.082103 0.421
-0.13217 -0.082103 0.421
-0.13285 -0.082103 0.421
-0.13354 -0.082103 0.421
-0.13423 -0.082103 0.421
-0.13491 -0.082103 0.421
-0.13592 -0.082298 0.422
-0.13661 -0.082298 0.422
-0.1373 -0.082298 0.422
-0.13798 -0.082298 0.422
-0.13834 -0.082103 0.421
-0.13903 -0.082103 0.421
-0.13972 -0.082103 0.421
-0.1404 -0.082103 0.421
-0.14109 -0.082103 0.421
-0.14177 -0.082103 0.421
-0.14246 -0.082103 0.421
-0.14315 -0.082103 0.421
-0.14383 -0.082103 0.421
-0.14452 -0.082103 0.421
-0.14486 -0.081908 0.42
-0.14554 -0.081908 0.42
-0.14623 -0.081908 0.42
-0.14691 -0.081908 0.42
-0.1476 -0.081908 0.42
-0.14828 -0.081908 0.42
-0.14897 -0.081908 0.42
-0.14965 -0.081908 0.42
-0.15033 -0.081908 0.42
-0.15102 -0.081908 0.42
-0.1517 -0.081908 0.42
-0.15239 -0.081908 0.42
-0.15307 -0.081908 0.42
-0.073891 -0.078463 0.399
-0.074541 -0.078463 0.399
-0.075192 -0.078463 0.399
-0.075652 -0.078266 0.398
-0.0763 -0.078266 0.398
-0.076949 -0.078266 0.398
-0.077598 -0.078266 0.398
-0.078246 -0.078266 0.398
-0.078895 -0.078266 0.398
-0.079743 -0.078463 0.399
-0.080394 -0.078463 0.399
-0.081247 -0.07866 0.4
-0.081899 -0.07866 0.4
-0.082551 -0.07866 0.4
-0.083411 -0.078856 0.401
-0.084064 -0.078856 0.401
-0.084718 -0.078856 0.401
-0.085584 -0.079053 0.402
-0.086239 -0.079053 0.402
-0.087111 -0.07925 0.403
-0.087767 -0.07925 0.403
-0.088424 -0.07925 0.403
-0.089081 -0.07925 0.403
-0.08996 -0.079446 0.404
-0.090619 -0.079446 0.404
-0.091503 -0.079643 0.405
-0.092163 -0.079643 0.405
-0.093052 -0.07984 0.406
-0.093945 -0.080036 0.407
-0.094608 -0.080036 0.407
-0.095505 -0.080233 0.408
-0.09617 -0.080233 0.408
-0.09731 -0.080626 0.41
-0.098456 -0.081019 0.412
-0.099128 -0.081019 0.412
-0.10028 -0.081413 0.414
-0.10096 -0.081413 0.414
-0.10212 -0.081806 0.416
-0.10423 -0.082396 0.419
-0.10491 -0.082396 0.419
-0.10559 -0.082396 0.419
-0.10867 -0.083183 0.423
-0.10936 -0.083183 0.423
-0.11005 -0.083183 0.423
-0.11074 -0.083183 0.423
-0.11142 -0.083183 0.423
-0.11212 -0.083183 0.423
-0.1128 -0.083183 0.423
-0.11376 -0.083379 0.424
-0.11418 -0.083183 0.423
-0.11487 -0.083183 0.423
-0.11556 -0.083183 0.423
-0.11625 -0.083183 0.423
-0.11694 -0.083183 0.423
-0.11735 -0.082986 0.422
-0.11804 -0.082986 0.422
-0.11873 -0.082986 0.422
-0.11913 -0.082789 0.421
-0.11982 -0.082789 0.421
-0.1205 -0.082789 0.421
-0.1209 -0.082593 0.42
-0.12159 -0.082593 0.42
-0.12227 -0.082593 0.42
-0.12266 -0.082396 0.419
-0.12335 -0.082396 0.419
-0.12403 -0.082396 0.419
-0.12471 -0.082396 0.419
-0.12539 -0.082396 0.419
-0.12578 -0.082199 0.418
-0.12646 -0.082199 0.418
-0.12714 -0.082199 0.418
-0.12782 -0.082199 0.418
-0.1285 -0.082199 0.418
-0.12918 -0.082199 0.418
-0.12986 -0.082199 0.418
-0.13086 -0.082396 0.419
-0.13154 -0.082396 0.419
-0.13222 -0.082396 0.419
-0.13291 -0.082396 0.419
-0.13359 -0.082396 0.419
-0.13427 -0.082396 0.419
-0.13528 -0.082593 0.42
-0.13596 -0.082593 0.42
-0.13632 -0.082396 0.419
-0.137 -0.082396 0.419
-0.13769 -0.082396 0.419
-0.13837 -0.082396 0.419
-0.13905 -0.082396 0.419
-0.13973 -0.082396 0.419
-0.14042 -0.082396 0.419
-0.1411 -0.082396 0.419
-0.14178 -0.082396 0.419
-0.14247 -0.082396 0.419
-0.14315 -0.082396 0.419
-0.14383 -0.082396 0.419
-0.14451 -0.082396 0.419
-0.1452 -0.082396 0.419
-0.14588 -0.082396 0.419
-0.14656 -0.082396 0.419
-0.14724 -0.082396 0.419
-0.14793 -0.082396 0.419
-0.14861 -0.082396 0.419
-0.14929 -0.082396 0.419
-0.14998 -0.082396 0.419
-0.15066 -0.082396 0.419
-0.15134 -0.082396 0.419
-0.15202 -0.082396 0.419
-0.15307 -0.082593 0.42
-0.15376 -0.082593 0.42
-0.15444 -0.082593 0.42
-0.1555 -0.082789 0.421
-0.15618 -0.082789 0.421
-0.15687 -0.082789 0.421
-0.15793 -0.082986 0.422
-0.15862 -0.082986 0.422
-0.15968 -0.083183 0.423
-0.16075 -0.083379 0.424
-0.16144 -0.083379 0.424
-0.072409 -0.078915 0.398
-0.073057 -0.078915 0.398
-0.073706 -0.078915 0.398
-0.074355 -0.078915 0.398
-0.074815 -0.078717 0.397
-0.075462 -0.078717 0.397
-0.076109 -0.078717 0.397
-0.076756 -0.078717 0.397
-0.077403 -0.078717 0.397
-0.07805 -0.078717 0.397
-0.078498 -0.078518 0.396
-0.079144 -0.078518 0.396
-0.079789 -0.078518 0.396
-0.080435 -0.078518 0.396
-0.081285 -0.078717 0.397
-0.081932 -0.078717 0.397
-0.082579 -0.078717 0.397
-0.083226 -0.078717 0.397
-0.083873 -0.078717 0.397
-0.08452 -0.078717 0.397
-0.085167 -0.078717 0.397
-0.085814 -0.078717 0.397
-0.086461 -0.078717 0.397
-0.087108 -0.078717 0.397
-0.087755 -0.078717 0.397
-0.088402 -0.078717 0.397
-0.089049 -0.078717 0.397
-0.089922 -0.078915 0.398
-0.09057 -0.078915 0.398
-0.091219 -0.078915 0.398
-0.092329 -0.079311 0.4
-0.092981 -0.079311 0.4
-0.093867 -0.07951 0.401
-0.094992 -0.079906 0.403
-0.095649 -0.079906 0.403
-0.096783 -0.080303 0.405
-0.097443 -0.080303 0.405
-0.09883 -0.080898 0.408
-0.10096 -0.082087 0.414
-0.10212 -0.082484 0.416
-0.10423 -0.083079 0.419
-0.10491 -0.083079 0.419
-0.10559 -0.083079 0.419
-0.10627 -0.083079 0.419
-0.10696 -0.083079 0.419
-0.10764 -0.083079 0.419
-0.10858 -0.083277 0.42
-0.10927 -0.083277 0.42
-0.10995 -0.083277 0.42
-0.11063 -0.083277 0.42
-0.11132 -0.083277 0.42
-0.11227 -0.083475 0.421
-0.11296 -0.083475 0.421
-0.11364 -0.083475 0.421
-0.11433 -0.083475 0.421
-0.11502 -0.083475 0.421
-0.11543 -0.083277 0.42
-0.11611 -0.083277 0.42
-0.11679 -0.083277 0.42
-0.1172 -0.083079 0.419
-0.11788 -0.083079 0.419
-0.11857 -0.083079 0.419
-0.11896 -0.08288 0.418
-0.11965 -0.08288 0.418
-0.12033 -0.08288 0.418
-0.12101 -0.08288 0.418
-0.12169 -0.08288 0.418
-0.12208 -0.082682 0.417
-0.12276 -0.082682 0.417
-0.12344 -0.082682 0.417
-0.12382 -0.082484 0.416
-0.1245 -0.082484 0.416
-0.12517 -0.082484 0.416
-0.12585 -0.082484 0.416
-0.12653 -0.082484 0.416
-0.12721 -0.082484 0.416
-0.12789 -0.082484 0.416
-0.12856 -0.082484 0.416
-0.12924 -0.082484 0.416
-0.13023 -0.082682 0.417
-0.13091 -0.082682 0.417
-0.13159 -0.082682 0.417
-0.13227 -0.082682 0.417
-0.13295 -0.082682 0.417
-0.13363 -0.082682 0.417
-0.13431 -0.082682 0.417
-0.13499 -0.082682 0.417
-0.13567 -0.082682 0.417
-0.13635 -0.082682 0.417
-0.13703 -0.082682 0.417
-0.13771 -0.082682 0.417
-0.13839 -0.082682 0.417
-0.13907 -0.082682 0.417
-0.13975 -0.082682 0.417
-0.14043 -0.082682 0.417
-0.14111 -0.082682 0.417
-0.14179 -0.082682 0.417
-0.14247 -0.082682 0.417
-0.14383 -0.083079 0.419
-0.14451 -0.083079 0.419
-0.1452 -0.083079 0.419
-0.14588 -0.083079 0.419
-0.14656 -0.083079 0.419
-0.14724 -0.083079 0.419
-0.14793 -0.083079 0.419
-0.14861 -0.083079 0.419
-0.14929 -0.083079 0.419
-0.14998 -0.083079 0.419
-0.15066 -0.083079 0.419
-0.15134 -0.083079 0.419
-0.15202 -0.083079 0.419
-0.15307 -0.083277 0.42
-0.15376 -0.083277 0.42
-0.15444 -0.083277 0.42
-0.1555 -0.083475 0.421
-0.15618 -0.083475 0.421
-0.15687 -0.083475 0.421
-0.15793 -0.083674 0.422
-0.15862 -0.083674 0.422
-0.15968 -0.083872 0.423
-0.16075 -0.08407 0.424
-0.16144 -0.08407 0.424
-0.072227 -0.079363 0.397
-0.072874 -0.079363 0.397
-0.073521 -0.079363 0.397
-0.074168 -0.079363 0.397
-0.074626 -0.079163 0.396
-0.075272 -0.079163 0.396
-0.075917 -0.079163 0.396
-0.076562 -0.079163 0.396
-0.077208 -0.079163 0.396
-0.077853 -0.079163 0.396
-0.0783 -0.078964 0.395
-0.078944 -0.078964 0.395
-0.079588 -0.078964 0.395
-0.080231 -0.078964 0.395
-0.080875 -0.078964 0.395
-0.081519 -0.078964 0.395
-0.081955 -0.078764 0.394
-0.082597 -0.078764 0.394
-0.083239 -0.078764 0.394
-0.083881 -0.078764 0.394
-0.084523 -0.078764 0.394
-0.085165 -0.078764 0.394
-0.085807 -0.078764 0.394
-0.086449 -0.078764 0.394
-0.08687 -0.078564 0.393
-0.087511 -0.078564 0.393
-0.088151 -0.078564 0.393
-0.088792 -0.078564 0.393
-0.08966 -0.078764 0.394
-0.090302 -0.078764 0.394
-0.090944 -0.078764 0.394
-0.092051 -0.079163 0.396
-0.092696 -0.079163 0.396
-0.094992 -0.080563 0.403
-0.095649 -0.080563 0.403
-0.095827 -0.080163 0.401
-0.096481 -0.080163 0.401
-0.097134 -0.080163 0.401
-0.10627 -0.083761 0.419
-0.10696 -0.083761 0.419
-0.10764 -0.083761 0.419
-0.10858 -0.083961 0.42
-0.10927 -0.083961 0.42
-0.10995 -0.083961 0.42
-0.11063 -0.083961 0.42
-0.11132 -0.083961 0.42
-0.11227 -0.084161 0.421
-0.11296 -0.084161 0.421
-0.11364 -0.084161 0.421
-0.11433 -0.084161 0.421
-0.11502 -0.084161 0.421
-0.11543 -0.083961 0.42
-0.11611 -0.083961 0.42
-0.11679 -0.083961 0.42
-0.1172 -0.083761 0.419
-0.11788 -0.083761 0.419
-0.11857 -0.083761 0.419
-0.11896 -0.083561 0.418
-0.11965 -0.083561 0.418
-0.12033 -0.083561 0.418
-0.12101 -0.083561 0.418
-0.12169 -0.083561 0.418
-0.12208 -0.083362 0.417
-0.12276 -0.083362 0.417
-0.12344 -0.083362 0.417
-0.12382 -0.083162 0.416
-0.1245 -0.083162 0.416
-0.12517 -0.083162 0.416
-0.12585 -0.083162 0.416
-0.12653 -0.083162 0.416
-0.12721 -0.083162 0.416
-0.12789 -0.083162 0.416
-0.12856 -0.083162 0.416
-0.12924 -0.083162 0.416
-0.13023 -0.083362 0.417
-0.13091 -0.083362 0.417
-0.13159 -0.083362 0.417
-0.13227 -0.083362 0.417
-0.13295 -0.083362 0.417
-0.13363 -0.083362 0.417
-0.13431 -0.083362 0.417
-0.13499 -0.083362 0.417
-0.13567 -0.083362 0.417
-0.13635 -0.083362 0.417
-0.13703 -0.083362 0.417
-0.13771 -0.083362 0.417
-0.13839 -0.083362 0.417
-0.13907 -0.083362 0.417
-0.13975 -0.083362 0.417
-0.14043 -0.083362 0.417
-0.14111 -0.083362 0.417
-0.14179 -0.083362 0.417
-0.14247 -0.083362 0.417
-0.14314 -0.083362 0.417
-0.14382 -0.083362 0.417
-0.1445 -0.083362 0.417
-0.14518 -0.083362 0.417
-0.14586 -0.083362 0.417
-0.14654 -0.083362 0.417
-0.14758 -0.083561 0.418
-0.14826 -0.083561 0.418
-0.14894 -0.083561 0.418
-0.14962 -0.083561 0.418
-0.1503 -0.083561 0.418
-0.15098 -0.083561 0.418
-0.15202 -0.083761 0.419
-0.15271 -0.083761 0.419
-0.15376 -0.083961 0.42
-0.15444 -0.083961 0.42
-0.15513 -0.083961 0.42
-0.15618 -0.084161 0.421
-0.15687 -0.084161 0.421
-0.15793 -0.084361 0.422
-0.15862 -0.084361 0.422
-0.15968 -0.084561 0.423
-0.16075 -0.084761 0.424
-0.16144 -0.084761 0.424
-0.16213 -0.084761 0.424
-0.072227 -0.08001 0.397
-0.072874 -0.08001 0.397
-0.073521 -0.08001 0.397
-0.074168 -0.08001 0.397
-0.074626 -0.079809 0.396
-0.075272 -0.079809 0.396
-0.075917 -0.079809 0.396
-0.076562 -0.079809 0.396
-0.077208 -0.079809 0.396
-0.077853 -0.079809 0.396
-0.0783 -0.079607 0.395
-0.078944 -0.079607 0.395
-0.079588 -0.079607 0.395
-0.080231 -0.079607 0.395
-0.080875 -0.079607 0.395
-0.081519 -0.079607 0.395
-0.081955 -0.079406 0.394
-0.082597 -0.079406 0.394
-0.083239 -0.079406 0.394
-0.083881 -0.079406 0.394
-0.084523 -0.079406 0.394
-0.085165 -0.079406 0.394
-0.085807 -0.079406 0.394
-0.086449 -0.079406 0.394
-0.08687 -0.079204 0.393
-0.087511 -0.079204 0.393
-0.088151 -0.079204 0.393
-0.088792 -0.079204 0.393
-0.08966 -0.079406 0.394
-0.090302 -0.079406 0.394
-0.090944 -0.079406 0.394
-0.092051 -0.079809 0.396
-0.092696 -0.079809 0.396
-0.095827 -0.080816 0.401
-0.096481 -0.080816 0.401
-0.097134 -0.080816 0.401
-0.09852 -0.081421 0.404
-0.099178 -0.081421 0.404
-0.10199 -0.08263 0.41
-0.10265 -0.08263 0.41
-0.10383 -0.083033 0.412
-0.1045 -0.083033 0.412
-0.10594 -0.083638 0.415
-0.10661 -0.083638 0.415
-0.10755 -0.083839 0.416
-0.10823 -0.083839 0.416
-0.1089 -0.083839 0.416
-0.10958 -0.083839 0.416
-0.11079 -0.084243 0.418
-0.11147 -0.084243 0.418
-0.11215 -0.084243 0.418
-0.11283 -0.084243 0.418
-0.11351 -0.084243 0.418
-0.1142 -0.084243 0.418
-0.1146 -0.084041 0.417
-0.11528 -0.084041 0.417
-0.11596 -0.084041 0.417
-0.11664 -0.084041 0.417
-0.11704 -0.083839 0.416
-0.11772 -0.083839 0.416
-0.1184 -0.083839 0.416
-0.11907 -0.083839 0.416
-0.11946 -0.083638 0.415
-0.12014 -0.083638 0.415
-0.12082 -0.083638 0.415
-0.12149 -0.083638 0.415
-0.12187 -0.083436 0.414
-0.12255 -0.083436 0.414
-0.12322 -0.083436 0.414
-0.1239 -0.083436 0.414
-0.12457 -0.083436 0.414
-0.12525 -0.083436 0.414
-0.12592 -0.083436 0.414
-0.1266 -0.083436 0.414
-0.12727 -0.083436 0.414
-0.12795 -0.083436 0.414
-0.12862 -0.083436 0.414
-0.1293 -0.083436 0.414
-0.12997 -0.083436 0.414
-0.13065 -0.083436 0.414
-0.13164 -0.083638 0.415
-0.13231 -0.083638 0.415
-0.13299 -0.083638 0.415
-0.13367 -0.083638 0.415
-0.13434 -0.083638 0.415
-0.13502 -0.083638 0.415
-0.1357 -0.083638 0.415
-0.13637 -0.083638 0.415
-0.13705 -0.083638 0.415
-0.13772 -0.083638 0.415
-0.1384 -0.083638 0.415
-0.13908 -0.083638 0.415
-0.13975 -0.083638 0.415
-0.14043 -0.083638 0.415
-0.14111 -0.083638 0.415
-0.14178 -0.083638 0.415
-0.14246 -0.083638 0.415
-0.14313 -0.083638 0.415
-0.14381 -0.083638 0.415
-0.14449 -0.083638 0.415
-0.14551 -0.083839 0.416
-0.14619 -0.083839 0.416
-0.14687 -0.083839 0.416
-0.14755 -0.083839 0.416
-0.14822 -0.083839 0.416
-0.14926 -0.084041 0.417
-0.14994 -0.084041 0.417
-0.15062 -0.084041 0.417
-0.15166 -0.084243 0.418
-0.15234 -0.084243 0.418
-0.15339 -0.084444 0.419
-0.15407 -0.084444 0.419
-0.15513 -0.084646 0.42
-0.15618 -0.084847 0.421
-0.15687 -0.084847 0.421
-0.15793 -0.085049 0.422
-0.15862 -0.085049 0.422
-0.15968 -0.08525 0.423
-0.16075 -0.085452 0.424
-0.16144 -0.085452 0.424
-0.16213 -0.085452 0.424
-0.16321 -0.085653 0.425
-0.1639 -0.085653 0.425
-0.16498 -0.085855 0.426
-0.16567 -0.085855 0.426
-0.16637 -0.085855 0.426
-0.16745 -0.086056 0.427
-0.16815 -0.086056 0.427
-0.16885 -0.086056 0.427
-0.071399 -0.080454 0.396
-0.072045 -0.080454 0.396
-0.07269 -0.080454 0.396
-0.073336 -0.080454 0.396
-0.073794 -0.080251 0.395
-0.074438 -0.080251 0.395
-0.075082 -0.080251 0.395
-0.075725 -0.080251 0.395
-0.076369 -0.080251 0.395
-0.076818 -0.080048 0.394
-0.07746 -0.080048 0.394
-0.078102 -0.080048 0.394
-0.078744 -0.080048 0.394
-0.079386 -0.080048 0.394
-0.079825 -0.079844 0.393
-0.080466 -0.079844 0.393
-0.081106 -0.079844 0.393
-0.081539 -0.079641 0.392
-0.082177 -0.079641 0.392
-0.082816 -0.079641 0.392
-0.083242 -0.079438 0.391
-0.083879 -0.079438 0.391
-0.084517 -0.079438 0.391
-0.085154 -0.079438 0.391
-0.085791 -0.079438 0.391
-0.086207 -0.079235 0.39
-0.086843 -0.079235 0.39
-0.087478 -0.079235 0.39
-0.088114 -0.079235 0.39
-0.08875 -0.079235 0.39
-0.089385 -0.079235 0.39
-0.090021 -0.079235 0.39
-0.090889 -0.079438 0.391
-0.091526 -0.079438 0.391
-0.092163 -0.079438 0.391
-0.093275 -0.079844 0.393
-0.093916 -0.079844 0.393
-0.095037 -0.080251 0.395
-0.095681 -0.080251 0.395
-0.097056 -0.08086 0.398
-0.099178 -0.082079 0.404
-0.099836 -0.082079 0.404
-0.1005 -0.082079 0.404
-0.10115 -0.082079 0.404
-0.10257 -0.082689 0.407
-0.10323 -0.082689 0.407
-0.10466 -0.083298 0.41
-0.10558 -0.083501 0.411
-0.10626 -0.083501 0.411
-0.10719 -0.083705 0.412
-0.10786 -0.083705 0.412
-0.10879 -0.083908 0.413
-0.11079 -0.084924 0.418
-0.11147 -0.084924 0.418
-0.11108 -0.084111 0.414
-0.11175 -0.084111 0.414
-0.11243 -0.084111 0.414
-0.1131 -0.084111 0.414
-0.11378 -0.084111 0.414
-0.11445 -0.084111 0.414
-0.11513 -0.084111 0.414
-0.1158 -0.084111 0.414
-0.11648 -0.084111 0.414
-0.11715 -0.084111 0.414
-0.11754 -0.083908 0.413
-0.11821 -0.083908 0.413
-0.11889 -0.083908 0.413
-0.11956 -0.083908 0.413
-0.12023 -0.083908 0.413
-0.12061 -0.083705 0.412
-0.12129 -0.083705 0.412
-0.12196 -0.083705 0.412
-0.12263 -0.083705 0.412
-0.1233 -0.083705 0.412
-0.12397 -0.083705 0.412
-0.12464 -0.083705 0.412
-0.12531 -0.083705 0.412
-0.12599 -0.083705 0.412
-0.12666 -0.083705 0.412
-0.12733 -0.083705 0.412
-0.128 -0.083705 0.412
-0.12867 -0.083705 0.412
-0.12934 -0.083705 0.412
-0.13001 -0.083705 0.412
-0.13164 -0.084314 0.415
-0.13231 -0.084314 0.415
-0.13299 -0.084314 0.415
-0.13367 -0.084314 0.415
-0.13434 -0.084314 0.415
-0.13502 -0.084314 0.415
-0.1357 -0.084314 0.415
-0.13637 -0.084314 0.415
-0.13705 -0.084314 0.415
-0.13772 -0.084314 0.415
-0.1384 -0.084314 0.415
-0.13908 -0.084314 0.415
-0.13975 -0.084314 0.415
-0.14043 -0.084314 0.415
-0.14111 -0.084314 0.415
-0.14178 -0.084314 0.415
-0.14246 -0.084314 0.415
-0.14313 -0.084314 0.415
-0.14381 -0.084314 0.415
-0.14449 -0.084314 0.415
-0.14551 -0.084517 0.416
-0.14619 -0.084517 0.416
-0.14687 -0.084517 0.416
-0.14755 -0.084517 0.416
-0.14822 -0.084517 0.416
-0.14926 -0.08472 0.417
-0.14994 -0.08472 0.417
-0.15062 -0.08472 0.417
-0.15166 -0.084924 0.418
-0.15234 -0.084924 0.418
-0.15339 -0.085127 0.419
-0.15407 -0.085127 0.419
-0.15513 -0.08533 0.42
-0.15618 -0.085533 0.421
-0.15687 -0.085533 0.421
-0.15793 -0.085736 0.422
-0.15862 -0.085736 0.422
-0.15968 -0.085939 0.423
-0.16075 -0.086143 0.424
-0.16144 -0.086143 0.424
-0.16213 -0.086143 0.424
-0.16321 -0.086346 0.425
-0.1639 -0.086346 0.425
-0.16498 -0.086549 0.426
-0.16567 -0.086549 0.426
-0.16637 -0.086549 0.426
-0.16745 -0.086752 0.427
-0.16815 -0.086752 0.427
-0.16885 -0.086752 0.427
-0.071399 -0.081099 0.396
-0.071863 -0.080894 0.395
-0.072507 -0.080894 0.395
-0.072965 -0.08069 0.394
-0.073607 -0.08069 0.394
-0.074249 -0.08069 0.394
-0.074891 -0.08069 0.394
-0.075342 -0.080485 0.393
-0.075982 -0.080485 0.393
-0.076623 -0.080485 0.393
-0.077263 -0.080485 0.393
-0.077706 -0.08028 0.392
-0.078344 -0.08028 0.392
-0.078983 -0.08028 0.392
-0.079622 -0.08028 0.392
-0.080056 -0.080075 0.391
-0.080693 -0.080075 0.391
-0.081123 -0.07987 0.39
-0.081758 -0.07987 0.39
-0.082394 -0.07987 0.39
-0.082816 -0.079666 0.389
-0.08345 -0.079666 0.389
-0.084084 -0.079666 0.389
-0.084718 -0.079666 0.389
-0.085791 -0.080075 0.391
-0.086207 -0.07987 0.39
-0.086843 -0.07987 0.39
-0.087478 -0.07987 0.39
-0.088114 -0.07987 0.39
-0.08875 -0.07987 0.39
-0.089385 -0.07987 0.39
-0.090021 -0.07987 0.39
-0.090889 -0.080075 0.391
-0.091526 -0.080075 0.391
-0.092163 -0.080075 0.391
-0.093275 -0.080485 0.393
-0.093916 -0.080485 0.393
-0.095037 -0.080894 0.395
-0.095681 -0.080894 0.395
-0.097056 -0.081509 0.398
-0.099836 -0.082737 0.404
-0.1005 -0.082737 0.404
-0.10115 -0.082737 0.404
-0.10257 -0.083352 0.407
-0.10323 -0.083352 0.407
-0.10466 -0.083966 0.41
-0.10558 -0.084171 0.411
-0.10626 -0.084171 0.411
-0.10719 -0.084376 0.412
-0.10786 -0.084376 0.412
-0.10879 -0.084581 0.413
-0.11108 -0.084785 0.414
-0.11175 -0.084785 0.414
-0.11243 -0.084785 0.414
-0.1131 -0.084785 0.414
-0.11378 -0.084785 0.414
-0.11445 -0.084785 0.414
-0.11513 -0.084785 0.414
-0.1158 -0.084785 0.414
-0.11648 -0.084785 0.414
-0.11715 -0.084785 0.414
-0.11754 -0.084581 0.413
-0.11821 -0.084581 0.413
-0.11889 -0.084581 0.413
-0.11956 -0.084581 0.413
-0.12023 -0.084581 0.413
-0.12061 -0.084376 0.412
-0.12129 -0.084376 0.412
-0.12196 -0.084376 0.412
-0.12263 -0.084376 0.412
-0.1233 -0.084376 0.412
-0.12397 -0.084376 0.412
-0.12464 -0.084376 0.412
-0.12531 -0.084376 0.412
-0.12599 -0.084376 0.412
-0.12666 -0.084376 0.412
-0.12733 -0.084376 0.412
-0.128 -0.084376 0.412
-0.12867 -0.084376 0.412
-0.12934 -0.084376 0.412
-0.13001 -0.084376 0.412
-0.131 -0.084581 0.413
-0.13168 -0.084581 0.413
-0.13235 -0.084581 0.413
-0.13302 -0.084581 0.413
-0.1337 -0.084581 0.413
-0.13437 -0.084581 0.413
-0.13504 -0.084581 0.413
-0.13571 -0.084581 0.413
-0.13639 -0.084581 0.413
-0.13706 -0.084581 0.413
-0.13773 -0.084581 0.413
-0.13841 -0.084581 0.413
-0.13908 -0.084581 0.413
-0.13975 -0.084581 0.413
-0.14042 -0.084581 0.413
-0.1411 -0.084581 0.413
-0.14177 -0.084581 0.413
-0.14244 -0.084581 0.413
-0.14312 -0.084581 0.413
-0.14379 -0.084581 0.413
-0.14481 -0.084785 0.414
-0.14549 -0.084785 0.414
-0.14616 -0.084785 0.414
-0.14719 -0.08499 0.415
-0.14787 -0.08499 0.415
-0.14855 -0.08499 0.415
-0.14922 -0.08499 0.415
-0.15026 -0.085195 0.416
-0.1513 -0.0854 0.417
-0.15198 -0.0854 0.417
-0.15302 -0.085605 0.418
-0.15371 -0.085605 0.418
-0.15476 -0.085809 0.419
-0.15581 -0.086014 0.42
-0.15649 -0.086014 0.42
-0.15793 -0.086424 0.422
-0.15862 -0.086424 0.422
-0.15968 -0.086629 0.423
-0.16075 -0.086833 0.424
-0.16144 -0.086833 0.424
-0.16213 -0.086833 0.424
-0.16321 -0.087038 0.425
-0.1639 -0.087038 0.425
-0.16498 -0.087243 0.426
-0.16567 -0.087243 0.426
-0.16637 -0.087243 0.426
-0.16745 -0.087448 0.427
-0.16815 -0.087448 0.427
-0.16885 -0.087448 0.427
-0.17034 -0.087857 0.429
-0.17103 -0.087857 0.429
-0.071863 -0.081538 0.395
-0.072507 -0.081538 0.395
-0.072965 -0.081331 0.394
-0.073607 -0.081331 0.394
-0.074249 -0.081331 0.394
-0.074891 -0.081331 0.394
-0.075342 -0.081125 0.393
-0.075982 -0.081125 0.393
-0.076623 -0.081125 0.393
-0.077263 -0.081125 0.393
-0.077706 -0.080919 0.392
-0.078344 -0.080919 0.392
-0.078983 -0.080919 0.392
-0.079622 -0.080919 0.392
-0.080056 -0.080712 0.391
-0.080693 -0.080712 0.391
-0.081123 -0.080506 0.39
-0.081758 -0.080506 0.39
-0.082394 -0.080506 0.39
-0.082816 -0.080299 0.389
-0.08345 -0.080299 0.389
-0.084084 -0.080299 0.389
-0.084501 -0.080093 0.388
-0.084913 -0.079886 0.387
-0.085544 -0.079886 0.387
-0.086175 -0.079886 0.387
-0.086806 -0.079886 0.387
-0.08721 -0.07968 0.386
-0.087839 -0.07968 0.386
-0.088468 -0.07968 0.386
-0.089098 -0.07968 0.386
-0.089959 -0.079886 0.387
-0.091526 -0.080712 0.391
-0.091456 -0.080093 0.388
-0.092088 -0.080093 0.388
-0.092721 -0.080093 0.388
-0.093834 -0.080506 0.39
-0.095197 -0.081125 0.393
-0.095837 -0.081125 0.393
-0.098848 -0.08257 0.4
-0.0995 -0.08257 0.4
-0.10015 -0.08257 0.4
-0.10156 -0.083189 0.403
-0.10298 -0.083809 0.406
-0.10364 -0.083809 0.406
-0.10456 -0.084015 0.407
-0.10522 -0.084015 0.407
-0.10614 -0.084221 0.408
-0.10707 -0.084428 0.409
-0.10774 -0.084428 0.409
-0.10867 -0.084634 0.41
-0.10934 -0.084634 0.41
-0.11027 -0.084841 0.411
-0.11094 -0.084841 0.411
-0.11161 -0.084841 0.411
-0.11228 -0.084841 0.411
-0.11295 -0.084841 0.411
-0.11362 -0.084841 0.411
-0.11429 -0.084841 0.411
-0.11496 -0.084841 0.411
-0.11563 -0.084841 0.411
-0.1163 -0.084841 0.411
-0.11697 -0.084841 0.411
-0.11764 -0.084841 0.411
-0.11831 -0.084841 0.411
-0.11898 -0.084841 0.411
-0.11936 -0.084634 0.41
-0.12003 -0.084634 0.41
-0.1207 -0.084634 0.41
-0.12137 -0.084634 0.41
-0.12203 -0.084634 0.41
-0.1227 -0.084634 0.41
-0.12337 -0.084634 0.41
-0.12404 -0.084634 0.41
-0.1247 -0.084634 0.41
-0.12537 -0.084634 0.41
-0.12604 -0.084634 0.41
-0.12671 -0.084634 0.41
-0.12738 -0.084634 0.41
-0.12805 -0.084634 0.41
-0.12871 -0.084634 0.41
-0.12938 -0.084634 0.41
-0.13005 -0.084634 0.41
-0.13072 -0.084634 0.41
-0.13139 -0.084634 0.41
-0.13238 -0.084841 0.411
-0.13305 -0.084841 0.411
-0.13372 -0.084841 0.411
-0.13439 -0.084841 0.411
-0.13506 -0.084841 0.411
-0.13573 -0.084841 0.411
-0.1364 -0.084841 0.411
-0.13707 -0.084841 0.411
-0.13774 -0.084841 0.411
-0.13841 -0.084841 0.411
-0.13908 -0.084841 0.411
-0.13975 -0.084841 0.411
-0.14042 -0.084841 0.411
-0.14108 -0.084841 0.411
-0.14175 -0.084841 0.411
-0.14242 -0.084841 0.411
-0.14344 -0.085047 0.412
-0.14411 -0.085047 0.412
-0.14479 -0.085047 0.412
-0.14581 -0.085254 0.413
-0.14648 -0.085254 0.413
-0.14716 -0.085254 0.413
-0.14819 -0.08546 0.414
-0.14886 -0.08546 0.414
-0.1499 -0.085666 0.415
-0.15094 -0.085873 0.416
-0.15161 -0.085873 0.416
-0.15302 -0.086286 0.418
-0.15371 -0.086286 0.418
-0.15476 -0.086492 0.419
-0.15581 -0.086699 0.42
-0.15649 -0.086699 0.42
-0.15755 -0.086905 0.421
-0.15862 -0.087111 0.422
-0.1593 -0.087111 0.422
-0.16075 -0.087524 0.424
-0.16144 -0.087524 0.424
-0.16213 -0.087524 0.424
-0.16321 -0.087731 0.425
-0.1639 -0.087731 0.425
-0.16498 -0.087937 0.426
-0.16567 -0.087937 0.426
-0.16676 -0.088143 0.427
-0.16785 -0.08835 0.428
-0.16854 -0.08835 0.428
-0.16924 -0.08835 0.428
-0.17034 -0.088556 0.429
-0.17103 -0.088556 0.429
-0.071499 -0.081765 0.393
-0.072139 -0.081765 0.393
-0.07278 -0.081765 0.393
-0.07342 -0.081765 0.393
-0.074061 -0.081765 0.393
-0.074511 -0.081557 0.392
-0.07515 -0.081557 0.392
-0.075789 -0.081557 0.392
-0.076233 -0.081349 0.391
-0.07687 -0.081349 0.391
-0.077507 -0.081349 0.391
-0.077945 -0.081141 0.39
-0.07858 -0.081141 0.39
-0.079013 -0.080933 0.389
-0.079647 -0.080933 0.389
-0.080281 -0.080933 0.389
-0.080707 -0.080725 0.388
-0.081129 -0.080517 0.387
-0.08176 -0.080517 0.387
-0.082391 -0.080517 0.387
-0.082807 -0.080309 0.386
-0.083436 -0.080309 0.386
-0.083847 -0.080101 0.385
-0.084255 -0.079893 0.384
-0.084881 -0.079893 0.384
-0.085507 -0.079893 0.384
-0.085908 -0.079685 0.383
-0.086533 -0.079685 0.383
-0.087157 -0.079685 0.383
-0.087781 -0.079685 0.383
-0.088405 -0.079685 0.383
-0.089029 -0.079685 0.383
-0.090749 -0.080101 0.385
-0.091376 -0.080101 0.385
-0.092482 -0.080517 0.387
-0.093113 -0.080517 0.387
-0.095197 -0.081765 0.393
-0.095837 -0.081765 0.393
-0.098107 -0.082598 0.397
-0.098754 -0.082598 0.397
-0.10015 -0.083222 0.4
-0.1008 -0.083222 0.4
-0.10222 -0.083846 0.403
-0.10287 -0.083846 0.403
-0.10404 -0.084262 0.405
-0.1047 -0.084262 0.405
-0.10562 -0.08447 0.406
-0.10629 -0.08447 0.406
-0.10695 -0.08447 0.406
-0.10787 -0.084678 0.407
-0.1088 -0.084886 0.408
-0.10947 -0.084886 0.408
-0.11013 -0.084886 0.408
-0.1108 -0.084886 0.408
-0.11146 -0.084886 0.408
-0.11213 -0.084886 0.408
-0.11279 -0.084886 0.408
-0.11374 -0.085094 0.409
-0.1144 -0.085094 0.409
-0.11507 -0.085094 0.409
-0.11574 -0.085094 0.409
-0.11612 -0.084886 0.408
-0.11678 -0.084886 0.408
-0.11831 -0.08551 0.411
-0.11898 -0.08551 0.411
-0.11936 -0.085302 0.41
-0.12003 -0.085302 0.41
-0.1207 -0.085302 0.41
-0.12137 -0.085302 0.41
-0.12203 -0.085302 0.41
-0.1227 -0.085302 0.41
-0.12337 -0.085302 0.41
-0.12404 -0.085302 0.41
-0.1247 -0.085302 0.41
-0.12537 -0.085302 0.41
-0.12604 -0.085302 0.41
-0.12671 -0.085302 0.41
-0.12738 -0.085302 0.41
-0.12805 -0.085302 0.41
-0.12871 -0.085302 0.41
-0.12938 -0.085302 0.41
-0.13005 -0.085302 0.41
-0.13072 -0.085302 0.41
-0.13139 -0.085302 0.41
-0.13238 -0.08551 0.411
-0.13305 -0.08551 0.411
-0.13372 -0.08551 0.411
-0.13439 -0.08551 0.411
-0.13506 -0.08551 0.411
-0.13573 -0.08551 0.411
-0.1364 -0.08551 0.411
-0.13707 -0.08551 0.411
-0.13774 -0.08551 0.411
-0.13841 -0.08551 0.411
-0.13908 -0.08551 0.411
-0.13975 -0.08551 0.411
-0.14042 -0.08551 0.411
-0.14108 -0.08551 0.411
-0.14175 -0.08551 0.411
-0.14242 -0.08551 0.411
-0.14344 -0.085718 0.412
-0.14411 -0.085718 0.412
-0.14479 -0.085718 0.412
-0.14581 -0.085926 0.413
-0.14648 -0.085926 0.413
-0.14716 -0.085926 0.413
-0.14819 -0.086135 0.414
-0.14886 -0.086135 0.414
-0.1499 -0.086343 0.415
-0.15094 -0.086551 0.416
-0.15161 -0.086551 0.416
-0.15302 -0.086967 0.418
-0.15371 -0.086967 0.418
-0.15476 -0.087175 0.419
-0.15581 -0.087383 0.42
-0.15649 -0.087383 0.42
-0.15755 -0.087591 0.421
-0.15862 -0.087799 0.422
-0.1593 -0.087799 0.422
-0.16075 -0.088215 0.424
-0.16144 -0.088215 0.424
-0.16213 -0.088215 0.424
-0.16321 -0.088423 0.425
-0.1639 -0.088423 0.425
-0.16498 -0.088631 0.426
-0.16567 -0.088631 0.426
-0.16676 -0.088839 0.427
-0.16785 -0.089047 0.428
-0.16854 -0.089047 0.428
-0.16924 -0.089047 0.428
-0.17034 -0.089255 0.429
-0.17103 -0.089255 0.429
-0.17213 -0.089463 0.43
-0.17283 -0.089463 0.43
-0.070859 -0.082406 0.393
-0.071317 -0.082196 0.392
-0.071956 -0.082196 0.392
-0.072595 -0.082196 0.392
-0.073234 -0.082196 0.392
-0.073872 -0.082196 0.392
-0.074511 -0.082196 0.392
-0.07515 -0.082196 0.392
-0.075789 -0.082196 0.392
-0.076233 -0.081986 0.391
-0.07687 -0.081986 0.391
-0.077507 -0.081986 0.391
-0.077945 -0.081777 0.39
-0.07858 -0.081777 0.39
-0.079013 -0.081567 0.389
-0.079647 -0.081567 0.389
-0.080281 -0.081567 0.389
-0.080707 -0.081357 0.388
-0.081129 -0.081148 0.387
-0.08176 -0.081148 0.387
-0.082391 -0.081148 0.387
-0.082807 -0.080938 0.386
-0.083436 -0.080938 0.386
-0.083847 -0.080728 0.385
-0.084255 -0.080519 0.384
-0.084881 -0.080519 0.384
-0.085507 -0.080519 0.384
-0.085908 -0.080309 0.383
-0.086533 -0.080309 0.383
-0.087157 -0.080309 0.383
-0.087781 -0.080309 0.383
-0.088405 -0.080309 0.383
-0.089029 -0.080309 0.383
-0.090749 -0.080728 0.385
-0.091376 -0.080728 0.385
-0.092482 -0.081148 0.387
-0.093113 -0.081148 0.387
-0.098107 -0.083244 0.397
-0.098754 -0.083244 0.397
-0.10015 -0.083873 0.4
-0.1008 -0.083873 0.4
-0.10222 -0.084503 0.403
-0.10287 -0.084503 0.403
-0.10404 -0.084922 0.405
-0.1047 -0.084922 0.405
-0.10562 -0.085132 0.406
-0.10629 -0.085132 0.406
-0.10695 -0.085132 0.406
-0.10787 -0.085341 0.407
-0.1088 -0.085551 0.408
-0.10947 -0.085551 0.408
-0.11013 -0.085551 0.408
-0.1108 -0.085551 0.408
-0.11146 -0.085551 0.408
-0.11213 -0.085551 0.408
-0.11279 -0.085551 0.408
-0.11374 -0.085761 0.409
-0.1144 -0.085761 0.409
-0.11507 -0.085761 0.409
-0.11574 -0.085761 0.409
-0.11612 -0.085551 0.408
-0.11678 -0.085551 0.408
-0.11745 -0.085551 0.408
-0.11811 -0.085551 0.408
-0.11878 -0.085551 0.408
-0.11944 -0.085551 0.408
-0.12011 -0.085551 0.408
-0.12077 -0.085551 0.408
-0.12144 -0.085551 0.408
-0.1221 -0.085551 0.408
-0.12277 -0.085551 0.408
-0.12343 -0.085551 0.408
-0.1241 -0.085551 0.408
-0.12476 -0.085551 0.408
-0.12543 -0.085551 0.408
-0.12609 -0.085551 0.408
-0.12676 -0.085551 0.408
-0.12742 -0.085551 0.408
-0.12809 -0.085551 0.408
-0.12875 -0.085551 0.408
-0.12942 -0.085551 0.408
-0.13008 -0.085551 0.408
-0.13075 -0.085551 0.408
-0.13141 -0.085551 0.408
-0.1324 -0.085761 0.409
-0.13307 -0.085761 0.409
-0.13373 -0.085761 0.409
-0.1344 -0.085761 0.409
-0.13507 -0.085761 0.409
-0.13573 -0.085761 0.409
-0.1364 -0.085761 0.409
-0.13707 -0.085761 0.409
-0.13773 -0.085761 0.409
-0.1384 -0.085761 0.409
-0.13906 -0.085761 0.409
-0.14007 -0.08597 0.41
-0.14074 -0.08597 0.41
-0.14141 -0.08597 0.41
-0.14208 -0.08597 0.41
-0.14275 -0.08597 0.41
-0.14376 -0.08618 0.411
-0.14443 -0.08618 0.411
-0.1451 -0.08618 0.411
-0.14613 -0.08639 0.412
-0.1468 -0.08639 0.412
-0.14783 -0.086599 0.413
-0.1485 -0.086599 0.413
-0.14954 -0.086809 0.414
-0.15057 -0.087019 0.415
-0.15125 -0.087019 0.415
-0.15229 -0.087228 0.416
-0.15371 -0.087648 0.418
-0.15439 -0.087648 0.418
-0.15544 -0.087857 0.419
-0.15612 -0.087857 0.419
-0.15755 -0.088277 0.421
-0.15862 -0.088487 0.422
-0.1593 -0.088487 0.422
-0.16075 -0.088906 0.424
-0.16144 -0.088906 0.424
-0.16213 -0.088906 0.424
-0.16321 -0.089116 0.425
-0.1639 -0.089116 0.425
-0.16498 -0.089325 0.426
-0.16567 -0.089325 0.426
-0.16676 -0.089535 0.427
-0.16785 -0.089745 0.428
-0.16854 -0.089745 0.428
-0.16964 -0.089954 0.429
-0.17034 -0.089954 0.429
-0.17103 -0.089954 0.429
-0.17213 -0.090164 0.43
-0.17283 -0.090164 0.43
-0.17394 -0.090374 0.431
-0.17464 -0.090374 0.431
-0.17534 -0.090374 0.431
-0.070859 -0.083046 0.393
-0.071317 -0.082835 0.392
-0.071956 -0.082835 0.392
-0.072595 -0.082835 0.392
-0.073234 -0.082835 0.392
-0.073872 -0.082835 0.392
-0.074321 -0.082623 0.391
-0.074958 -0.082623 0.391
-0.075596 -0.082623 0.391
-0.076038 -0.082412 0.39
-0.076477 -0.082201 0.389
-0.077111 -0.082201 0.389
-0.077745 -0.082201 0.389
-0.078177 -0.081989 0.388
-0.07881 -0.081989 0.388
-0.079237 -0.081778 0.387
-0.079661 -0.081567 0.386
-0.080291 -0.081567 0.386
-0.08071 -0.081356 0.385
-0.081337 -0.081356 0.385
-0.081752 -0.081144 0.384
-0.082163 -0.080933 0.383
-0.082787 -0.080933 0.383
-0.083194 -0.080722 0.382
-0.083816 -0.080722 0.382
-0.084439 -0.080722 0.382
-0.084839 -0.08051 0.381
-0.085235 -0.080299 0.38
-0.085855 -0.080299 0.38
-0.086474 -0.080299 0.38
-0.087093 -0.080299 0.38
-0.087943 -0.08051 0.381
-0.088564 -0.08051 0.381
-0.090749 -0.081356 0.385
-0.091139 -0.081144 0.384
-0.091765 -0.081144 0.384
-0.092391 -0.081144 0.384
-0.097365 -0.083257 0.394
-0.098007 -0.083257 0.394
-0.099401 -0.083891 0.397
-0.10005 -0.083891 0.397
-0.10171 -0.084737 0.401
-0.10236 -0.084737 0.401
-0.10327 -0.084948 0.402
-0.10419 -0.085159 0.403
-0.10484 -0.085159 0.403
-0.10576 -0.08537 0.404
-0.10642 -0.08537 0.404
-0.10708 -0.08537 0.404
-0.108 -0.085582 0.405
-0.10866 -0.085582 0.405
-0.10932 -0.085582 0.405
-0.11026 -0.085793 0.406
-0.11092 -0.085793 0.406
-0.11158 -0.085793 0.406
-0.11224 -0.085793 0.406
-0.1129 -0.085793 0.406
-0.11356 -0.085793 0.406
-0.11423 -0.085793 0.406
-0.11489 -0.085793 0.406
-0.11555 -0.085793 0.406
-0.11621 -0.085793 0.406
-0.11687 -0.085793 0.406
-0.11753 -0.085793 0.406
-0.11819 -0.085793 0.406
-0.11886 -0.085793 0.406
-0.11952 -0.085793 0.406
-0.12018 -0.085793 0.406
-0.12084 -0.085793 0.406
-0.1215 -0.085793 0.406
-0.12216 -0.085793 0.406
-0.12283 -0.085793 0.406
-0.12349 -0.085793 0.406
-0.12415 -0.085793 0.406
-0.12481 -0.085793 0.406
-0.12547 -0.085793 0.406
-0.12613 -0.085793 0.406
-0.1268 -0.085793 0.406
-0.12746 -0.085793 0.406
-0.12812 -0.085793 0.406
-0.12878 -0.085793 0.406
-0.12944 -0.085793 0.406
-0.13043 -0.086004 0.407
-0.13109 -0.086004 0.407
-0.13175 -0.086004 0.407
-0.13242 -0.086004 0.407
-0.13308 -0.086004 0.407
-0.13374 -0.086004 0.407
-0.13441 -0.086004 0.407
-0.13507 -0.086004 0.407
-0.13573 -0.086004 0.407
-0.13639 -0.086004 0.407
-0.1374 -0.086216 0.408
-0.13806 -0.086216 0.408
-0.13872 -0.086216 0.408
-0.13939 -0.086216 0.408
-0.14006 -0.086216 0.408
-0.14072 -0.086216 0.408
-0.14173 -0.086427 0.409
-0.1424 -0.086427 0.409
-0.14341 -0.086638 0.41
-0.14408 -0.086638 0.41
-0.14475 -0.086638 0.41
-0.14577 -0.08685 0.411
-0.14644 -0.08685 0.411
-0.14747 -0.087061 0.412
-0.1485 -0.087272 0.413
-0.14918 -0.087272 0.413
-0.15057 -0.087695 0.415
-0.15125 -0.087695 0.415
-0.15229 -0.087906 0.416
-0.15371 -0.088329 0.418
-0.15439 -0.088329 0.418
-0.15544 -0.08854 0.419
-0.15612 -0.08854 0.419
-0.15755 -0.088963 0.421
-0.15862 -0.089174 0.422
-0.1593 -0.089174 0.422
-0.16075 -0.089597 0.424
-0.16144 -0.089597 0.424
-0.16251 -0.089808 0.425
-0.16359 -0.090019 0.426
-0.16428 -0.090019 0.426
-0.16537 -0.090231 0.427
-0.16606 -0.090231 0.427
-0.16715 -0.090442 0.428
-0.16785 -0.090442 0.428
-0.16854 -0.090442 0.428
-0.16964 -0.090653 0.429
-0.17073 -0.090865 0.43
-0.17143 -0.090865 0.43
-0.17253 -0.091076 0.431
-0.17324 -0.091076 0.431
-0.17394 -0.091076 0.431
-0.17464 -0.091076 0.431
-0.17534 -0.091076 0.431
-0.070859 -0.083686 0.393
-0.071135 -0.08326 0.391
-0.071772 -0.08326 0.391
-0.07241 -0.08326 0.391
-0.073047 -0.08326 0.391
-0.073684 -0.08326 0.391
-0.074131 -0.083047 0.39
-0.074767 -0.083047 0.39
-0.075402 -0.083047 0.39
-0.075843 -0.082835 0.389
-0.07628 -0.082622 0.388
-0.076913 -0.082622 0.388
-0.077345 -0.082409 0.387
-0.077774 -0.082196 0.386
-0.078403 -0.082196 0.386
-0.078828 -0.081983 0.385
-0.079249 -0.08177 0.384
-0.079875 -0.08177 0.384
-0.080291 -0.081557 0.383
-0.080704 -0.081344 0.382
-0.081326 -0.081344 0.382
-0.081734 -0.081131 0.381
-0.082139 -0.080918 0.38
-0.082758 -0.080918 0.38
-0.083378 -0.080918 0.38
-0.083997 -0.080918 0.38
-0.084393 -0.080705 0.379
-0.085011 -0.080705 0.379
-0.085629 -0.080705 0.379
-0.086246 -0.080705 0.379
-0.086864 -0.080705 0.379
-0.087482 -0.080705 0.379
-0.088099 -0.080705 0.379
-0.088717 -0.080705 0.379
-0.08957 -0.080918 0.38
-0.09019 -0.080918 0.38
-0.091765 -0.08177 0.384
-0.092391 -0.08177 0.384
-0.095987 -0.08326 0.391
-0.096624 -0.08326 0.391
-0.097261 -0.08326 0.391
-0.0989 -0.084112 0.395
-0.099543 -0.084112 0.395
-0.10095 -0.084751 0.398
-0.1016 -0.084751 0.398
-0.10276 -0.085177 0.4
-0.10393 -0.085603 0.402
-0.10458 -0.085603 0.402
-0.10576 -0.086029 0.404
-0.10642 -0.086029 0.404
-0.10708 -0.086029 0.404
-0.108 -0.086242 0.405
-0.10866 -0.086242 0.405
-0.10932 -0.086242 0.405
-0.11026 -0.086455 0.406
-0.11092 -0.086455 0.406
-0.11158 -0.086455 0.406
-0.11224 -0.086455 0.406
-0.1129 -0.086455 0.406
-0.11356 -0.086455 0.406
-0.11423 -0.086455 0.406
-0.11489 -0.086455 0.406
-0.11555 -0.086455 0.406
-0.11621 -0.086455 0.406
-0.11687 -0.086455 0.406
-0.11753 -0.086455 0.406
-0.11819 -0.086455 0.406
-0.11886 -0.086455 0.406
-0.11952 -0.086455 0.406
-0.12018 -0.086455 0.406
-0.12084 -0.086455 0.406
-0.1215 -0.086455 0.406
-0.12216 -0.086455 0.406
-0.12283 -0.086455 0.406
-0.12349 -0.086455 0.406
-0.12415 -0.086455 0.406
-0.12481 -0.086455 0.406
-0.12547 -0.086455 0.406
-0.12613 -0.086455 0.406
-0.1268 -0.086455 0.406
-0.12746 -0.086455 0.406
-0.12812 -0.086455 0.406
-0.12878 -0.086455 0.406
-0.12944 -0.086455 0.406
-0.13043 -0.086668 0.407
-0.13109 -0.086668 0.407
-0.13175 -0.086668 0.407
-0.13242 -0.086668 0.407
-0.13308 -0.086668 0.407
-0.13374 -0.086668 0.407
-0.13441 -0.086668 0.407
-0.13507 -0.086668 0.407
-0.13573 -0.086668 0.407
-0.13639 -0.086668 0.407
-0.1374 -0.08688 0.408
-0.13806 -0.08688 0.408
-0.13872 -0.08688 0.408
-0.13939 -0.08688 0.408
-0.14006 -0.08688 0.408
-0.14072 -0.08688 0.408
-0.14173 -0.087093 0.409
-0.1424 -0.087093 0.409
-0.14341 -0.087306 0.41
-0.14408 -0.087306 0.41
-0.14475 -0.087306 0.41
-0.14577 -0.087519 0.411
-0.14644 -0.087519 0.411
-0.14747 -0.087732 0.412
-0.1485 -0.087945 0.413
-0.14918 -0.087945 0.413
-0.15021 -0.088158 0.414
-0.15089 -0.088158 0.414
-0.15193 -0.088371 0.415
-0.15297 -0.088584 0.416
-0.15365 -0.088584 0.416
-0.15507 -0.08901 0.418
-0.15575 -0.08901 0.418
-0.15718 -0.089436 0.42
-0.15862 -0.089862 0.422
-0.1593 -0.089862 0.422
-0.16037 -0.090075 0.423
-0.16106 -0.090075 0.423
-0.16251 -0.0905 0.425
-0.16359 -0.090713 0.426
-0.16428 -0.090713 0.426
-0.16537 -0.090926 0.427
-0.16606 -0.090926 0.427
-0.16715 -0.091139 0.428
-0.16785 -0.091139 0.428
-0.16854 -0.091139 0.428
-0.16964 -0.091352 0.429
-0.17073 -0.091565 0.43
-0.17143 -0.091565 0.43
-0.17253 -0.091778 0.431
-0.17324 -0.091778 0.431
-0.17394 -0.091778 0.431
-0.17464 -0.091778 0.431
-0.17534 -0.091778 0.431
-0.17686 -0.092204 0.433
-0.071135 -0.083898 0.391
-0.071772 -0.083898 0.391
-0.07241 -0.083898 0.391
-0.073047 -0.083898 0.391
-0.073684 -0.083898 0.391
-0.074131 -0.083683 0.39
-0.074767 -0.083683 0.39
-0.075402 -0.083683 0.39
-0.075843 -0.083468 0.389
-0.07628 -0.083254 0.388
-0.076913 -0.083254 0.388
-0.077345 -0.083039 0.387
-0.077774 -0.082825 0.386
-0.078403 -0.082825 0.386
-0.078828 -0.08261 0.385
-0.079249 -0.082395 0.384
-0.079875 -0.082395 0.384
-0.080291 -0.082181 0.383
-0.080704 -0.081966 0.382
-0.081326 -0.081966 0.382
-0.081734 -0.081752 0.381
-0.082139 -0.081537 0.38
-0.082758 -0.081537 0.38
-0.083378 -0.081537 0.38
-0.083997 -0.081537 0.38
-0.084393 -0.081323 0.379
-0.085011 -0.081323 0.379
-0.085629 -0.081323 0.379
-0.086246 -0.081323 0.379
-0.086864 -0.081323 0.379
-0.087482 -0.081323 0.379
-0.088099 -0.081323 0.379
-0.088717 -0.081323 0.379
-0.08957 -0.081537 0.38
-0.09019 -0.081537 0.38
-0.095987 -0.083898 0.391
-0.096624 -0.083898 0.391
-0.097261 -0.083898 0.391
-0.0989 -0.084756 0.395
-0.099543 -0.084756 0.395
-0.10095 -0.0854 0.398
-0.1016 -0.0854 0.398
-0.10276 -0.085829 0.4
-0.10393 -0.086258 0.402
-0.10458 -0.086258 0.402
-0.10524 -0.086258 0.402
-0.10589 -0.086258 0.402
-0.10655 -0.086258 0.402
-0.10747 -0.086472 0.403
-0.10813 -0.086472 0.403
-0.10878 -0.086472 0.403
-0.10944 -0.086472 0.403
-0.1101 -0.086472 0.403
-0.11103 -0.086687 0.404
-0.11169 -0.086687 0.404
-0.11235 -0.086687 0.404
-0.113 -0.086687 0.404
-0.11366 -0.086687 0.404
-0.11432 -0.086687 0.404
-0.11498 -0.086687 0.404
-0.11564 -0.086687 0.404
-0.11658 -0.086902 0.405
-0.11724 -0.086902 0.405
-0.1179 -0.086902 0.405
-0.11856 -0.086902 0.405
-0.11922 -0.086902 0.405
-0.11988 -0.086902 0.405
-0.12054 -0.086902 0.405
-0.1212 -0.086902 0.405
-0.12156 -0.086687 0.404
-0.12222 -0.086687 0.404
-0.12288 -0.086687 0.404
-0.12354 -0.086687 0.404
-0.1242 -0.086687 0.404
-0.12486 -0.086687 0.404
-0.12551 -0.086687 0.404
-0.12617 -0.086687 0.404
-0.12683 -0.086687 0.404
-0.12781 -0.086902 0.405
-0.12846 -0.086902 0.405
-0.12912 -0.086902 0.405
-0.12979 -0.086902 0.405
-0.13045 -0.086902 0.405
-0.1311 -0.086902 0.405
-0.13176 -0.086902 0.405
-0.13275 -0.087116 0.406
-0.13341 -0.087116 0.406
-0.13407 -0.087116 0.406
-0.13474 -0.087116 0.406
-0.1354 -0.087116 0.406
-0.13606 -0.087116 0.406
-0.13672 -0.087116 0.406
-0.13772 -0.087331 0.407
-0.13839 -0.087331 0.407
-0.13905 -0.087331 0.407
-0.13971 -0.087331 0.407
-0.14037 -0.087331 0.407
-0.14139 -0.087545 0.408
-0.14205 -0.087545 0.408
-0.14272 -0.087545 0.408
-0.14373 -0.08776 0.409
-0.1444 -0.08776 0.409
-0.14542 -0.087974 0.41
-0.14609 -0.087974 0.41
-0.14675 -0.087974 0.41
-0.14778 -0.088189 0.411
-0.14845 -0.088189 0.411
-0.14985 -0.088618 0.413
-0.15052 -0.088618 0.413
-0.15119 -0.088618 0.413
-0.1526 -0.089047 0.415
-0.15328 -0.089047 0.415
-0.1547 -0.089476 0.417
-0.15538 -0.089476 0.417
-0.1568 -0.089906 0.419
-0.15824 -0.090335 0.421
-0.15893 -0.090335 0.421
-0.16037 -0.090764 0.423
-0.16106 -0.090764 0.423
-0.16251 -0.091193 0.425
-0.16359 -0.091408 0.426
-0.16428 -0.091408 0.426
-0.16537 -0.091622 0.427
-0.16606 -0.091622 0.427
-0.16715 -0.091837 0.428
-0.16824 -0.092051 0.429
-0.16894 -0.092051 0.429
-0.17003 -0.092266 0.43
-0.17113 -0.09248 0.431
-0.17183 -0.09248 0.431
-0.17253 -0.09248 0.431
-0.17324 -0.09248 0.431
-0.17394 -0.09248 0.431
-0.17505 -0.092695 0.432
-0.17575 -0.092695 0.432
-0.17686 -0.09291 0.433
-0.17757 -0.09291 0.433
-0.17827 -0.09291 0.433
-0.070953 -0.084318 0.39
-0.071589 -0.084318 0.39
-0.072224 -0.084318 0.39
-0.07286 -0.084318 0.39
-0.073496 -0.084318 0.39
-0.073941 -0.084102 0.389
-0.074575 -0.084102 0.389
-0.075209 -0.084102 0.389
-0.075648 -0.083886 0.388
-0.076084 -0.08367 0.387
-0.076714 -0.08367 0.387
-0.077145 -0.083454 0.386
-0.077573 -0.083237 0.385
-0.0782 -0.083237 0.385
-0.078418 -0.082805 0.383
-0.078836 -0.082589 0.382
-0.079459 -0.082589 0.382
-0.079871 -0.082373 0.381
-0.080281 -0.082156 0.38
-0.0809 -0.082156 0.38
-0.081305 -0.08194 0.379
-0.081923 -0.08194 0.379
-0.08254 -0.08194 0.379
-0.082939 -0.081724 0.378
-0.083334 -0.081508 0.377
-0.083948 -0.081508 0.377
-0.084563 -0.081508 0.377
-0.085177 -0.081508 0.377
-0.085791 -0.081508 0.377
-0.086406 -0.081508 0.377
-0.08702 -0.081508 0.377
-0.087635 -0.081508 0.377
-0.088249 -0.081508 0.377
-0.089099 -0.081724 0.378
-0.089715 -0.081724 0.378
-0.09057 -0.08194 0.379
-0.091188 -0.08194 0.379
-0.092532 -0.082589 0.382
-0.095987 -0.084535 0.391
-0.096624 -0.084535 0.391
-0.097261 -0.084535 0.391
-0.0989 -0.085399 0.395
-0.099543 -0.085399 0.395
-0.10069 -0.085832 0.397
-0.1016 -0.086048 0.398
-0.1025 -0.086264 0.399
-0.10367 -0.086697 0.401
-0.10432 -0.086697 0.401
-0.10498 -0.086697 0.401
-0.10589 -0.086913 0.402
-0.10655 -0.086913 0.402
-0.1072 -0.086913 0.402
-0.10786 -0.086913 0.402
-0.10851 -0.086913 0.402
-0.10944 -0.087129 0.403
-0.1101 -0.087129 0.403
-0.11075 -0.087129 0.403
-0.11141 -0.087129 0.403
-0.11207 -0.087129 0.403
-0.113 -0.087345 0.404
-0.11366 -0.087345 0.404
-0.11432 -0.087345 0.404
-0.11498 -0.087345 0.404
-0.11564 -0.087345 0.404
-0.1163 -0.087345 0.404
-0.11696 -0.087345 0.404
-0.11761 -0.087345 0.404
-0.11827 -0.087345 0.404
-0.11893 -0.087345 0.404
-0.11959 -0.087345 0.404
-0.12025 -0.087345 0.404
-0.1209 -0.087345 0.404
-0.12156 -0.087345 0.404
-0.12222 -0.087345 0.404
-0.12258 -0.087129 0.403
-0.12323 -0.087129 0.403
-0.12389 -0.087129 0.403
-0.12455 -0.087129 0.403
-0.1252 -0.087129 0.403
-0.12586 -0.087129 0.403
-0.12652 -0.087129 0.403
-0.12717 -0.087129 0.403
-0.12783 -0.087129 0.403
-0.12881 -0.087345 0.404
-0.12946 -0.087345 0.404
-0.13012 -0.087345 0.404
-0.13078 -0.087345 0.404
-0.13144 -0.087345 0.404
-0.1321 -0.087345 0.404
-0.13309 -0.087561 0.405
-0.13375 -0.087561 0.405
-0.1344 -0.087561 0.405
-0.1354 -0.087778 0.406
-0.13606 -0.087778 0.406
-0.13672 -0.087778 0.406
-0.13772 -0.087994 0.407
-0.13839 -0.087994 0.407
-0.13905 -0.087994 0.407
-0.13971 -0.087994 0.407
-0.14037 -0.087994 0.407
-0.14139 -0.08821 0.408
-0.14205 -0.08821 0.408
-0.14272 -0.08821 0.408
-0.14373 -0.088426 0.409
-0.1444 -0.088426 0.409
-0.14542 -0.088642 0.41
-0.14609 -0.088642 0.41
-0.14675 -0.088642 0.41
-0.14778 -0.088859 0.411
-0.14845 -0.088859 0.411
-0.14985 -0.089291 0.413
-0.15052 -0.089291 0.413
-0.15119 -0.089291 0.413
-0.1526 -0.089723 0.415
-0.15328 -0.089723 0.415
-0.1547 -0.090156 0.417
-0.15538 -0.090156 0.417
-0.1568 -0.090588 0.419
-0.15824 -0.091021 0.421
-0.15893 -0.091021 0.421
-0.16037 -0.091453 0.423
-0.16106 -0.091453 0.423
-0.16251 -0.091885 0.425
-0.16359 -0.092102 0.426
-0.16428 -0.092102 0.426
-0.16575 -0.092534 0.428
-0.16645 -0.092534 0.428
-0.16754 -0.09275 0.429
-0.16824 -0.09275 0.429
-0.16894 -0.09275 0.429
-0.17003 -0.092966 0.43
-0.17113 -0.093183 0.431
-0.17183 -0.093183 0.431
-0.17253 -0.093183 0.431
-0.17324 -0.093183 0.431
-0.17434 -0.093399 0.432
-0.17505 -0.093399 0.432
-0.17575 -0.093399 0.432
-0.17686 -0.093615 0.433
-0.17757 -0.093615 0.433
-0.17827 -0.093615 0.433
-0.070953 -0.084954 0.39
-0.071589 -0.084954 0.39
-0.072224 -0.084954 0.39
-0.072673 -0.084736 0.389
-0.073307 -0.084736 0.389
-0.073941 -0.084736 0.389
-0.074383 -0.084518 0.388
-0.075016 -0.084518 0.388
-0.075453 -0.0843 0.387
-0.075887 -0.084082 0.386
-0.076516 -0.084082 0.386
-0.076945 -0.083865 0.385
-0.07717 -0.083429 0.383
-0.077794 -0.083429 0.383
-0.078213 -0.083211 0.382
-0.078423 -0.082775 0.38
-0.079043 -0.082775 0.38
-0.079452 -0.082558 0.379
-0.08007 -0.082558 0.379
-0.080688 -0.082558 0.379
-0.081091 -0.08234 0.378
-0.081491 -0.082122 0.377
-0.082105 -0.082122 0.377
-0.0825 -0.081904 0.376
-0.083113 -0.081904 0.376
-0.083725 -0.081904 0.376
-0.084338 -0.081904 0.376
-0.084725 -0.081686 0.375
-0.085336 -0.081686 0.375
-0.085947 -0.081686 0.375
-0.086558 -0.081686 0.375
-0.08717 -0.081686 0.375
-0.087781 -0.081686 0.375
-0.088628 -0.081904 0.376
-0.08924 -0.081904 0.376
-0.09057 -0.082558 0.379
-0.091188 -0.082558 0.379
-0.092532 -0.083211 0.382
-0.10005 -0.086479 0.397
-0.10069 -0.086479 0.397
-0.10185 -0.086914 0.399
-0.1025 -0.086914 0.399
-0.10367 -0.08735 0.401
-0.10432 -0.08735 0.401
-0.10498 -0.08735 0.401
-0.10589 -0.087568 0.402
-0.10655 -0.087568 0.402
-0.1072 -0.087568 0.402
-0.10786 -0.087568 0.402
-0.10851 -0.087568 0.402
-0.10944 -0.087786 0.403
-0.1101 -0.087786 0.403
-0.11075 -0.087786 0.403
-0.11141 -0.087786 0.403
-0.11207 -0.087786 0.403
-0.113 -0.088003 0.404
-0.11366 -0.088003 0.404
-0.11432 -0.088003 0.404
-0.11498 -0.088003 0.404
-0.11564 -0.088003 0.404
-0.1163 -0.088003 0.404
-0.11696 -0.088003 0.404
-0.11761 -0.088003 0.404
-0.11827 -0.088003 0.404
-0.11893 -0.088003 0.404
-0.11959 -0.088003 0.404
-0.12025 -0.088003 0.404
-0.1209 -0.088003 0.404
-0.12156 -0.088003 0.404
-0.12222 -0.088003 0.404
-0.12258 -0.087786 0.403
-0.12323 -0.087786 0.403
-0.12389 -0.087786 0.403
-0.12455 -0.087786 0.403
