ply
format ascii 1.0
comment Created by Open3D
element vertex 2016
property double x
property double y
property double z
end_header
-0.1471 -0.10854 0.388
-0.14735 -0.10826 0.387
-0.14798 -0.10826 0.387
-0.14861 -0.10826 0.387
-0.14924 -0.10826 0.387
-0.14988 -0.10826 0.387
-0.15012 -0.10798 0.386
-0.15075 -0.10798 0.386
-0.15138 -0.10798 0.386
-0.15161 -0.1077 0.385
-0.15224 -0.1077 0.385
-0.15287 -0.1077 0.385
-0.15309 -0.10742 0.384
-0.15372 -0.10742 0.384
-0.15435 -0.10742 0.384
-0.15457 -0.10714 0.383
-0.15519 -0.10714 0.383
-0.15582 -0.10714 0.383
-0.15644 -0.10714 0.383
-0.15707 -0.10714 0.383
-0.15728 -0.10686 0.382
-0.1579 -0.10686 0.382
-0.15852 -0.10686 0.382
-0.15873 -0.10658 0.381
-0.15935 -0.10658 0.381
-0.15955 -0.1063 0.38
-0.16017 -0.1063 0.38
-0.16079 -0.1063 0.38
-0.16098 -0.10602 0.379
-0.16118 -0.10574 0.378
-0.16179 -0.10574 0.378
-0.16198 -0.10546 0.377
-0.16259 -0.10546 0.377
-0.16321 -0.10546 0.377
-0.16382 -0.10546 0.377
-0.164 -0.10518 0.376
-0.16461 -0.10518 0.376
-0.16522 -0.10518 0.376
-0.16584 -0.10518 0.376
-0.16689 -0.10546 0.377
-0.16751 -0.10546 0.377
-0.16812 -0.10546 0.377
-0.16873 -0.10546 0.377
-0.089515 -0.11311 0.402
-0.09017 -0.11311 0.402
-0.090599 -0.11283 0.401
-0.091025 -0.11255 0.4
-0.091677 -0.11255 0.4
-0.092329 -0.11255 0.4
-0.092516 -0.11199 0.398
-0.093165 -0.11199 0.398
-0.093813 -0.11199 0.398
-0.094462 -0.11199 0.398
-0.094872 -0.1117 0.397
-0.095278 -0.11142 0.396
-0.095923 -0.11142 0.396
-0.096325 -0.11114 0.395
-0.096969 -0.11114 0.395
-0.097612 -0.11114 0.395
-0.098007 -0.11086 0.394
-0.098399 -0.11058 0.393
-0.099039 -0.11058 0.393
-0.099426 -0.1103 0.392
-0.09981 -0.11002 0.391
-0.10045 -0.11002 0.391
-0.10083 -0.10974 0.39
-0.10146 -0.10974 0.39
-0.1021 -0.10974 0.39
-0.10247 -0.10945 0.389
-0.10284 -0.10917 0.388
-0.10347 -0.10917 0.388
-0.10383 -0.10889 0.387
-0.10447 -0.10889 0.387
-0.1051 -0.10889 0.387
-0.10545 -0.10861 0.386
-0.10608 -0.10861 0.386
-0.10644 -0.10833 0.385
-0.10706 -0.10833 0.385
-0.10769 -0.10833 0.385
-0.10804 -0.10805 0.384
-0.10866 -0.10805 0.384
-0.10929 -0.10805 0.384
-0.10963 -0.10777 0.383
-0.11025 -0.10777 0.383
-0.11088 -0.10777 0.383
-0.11121 -0.10748 0.382
-0.11183 -0.10748 0.382
-0.11245 -0.10748 0.382
-0.11308 -0.10748 0.382
-0.1137 -0.10748 0.382
-0.11432 -0.10748 0.382
-0.11494 -0.10748 0.382
-0.11557 -0.10748 0.382
-0.11619 -0.10748 0.382
-0.11681 -0.10748 0.382
-0.11743 -0.10748 0.382
-0.11806 -0.10748 0.382
-0.11868 -0.10748 0.382
-0.1193 -0.10748 0.382
-0.11992 -0.10748 0.382
-0.12055 -0.10748 0.382
-0.12117 -0.10748 0.382
-0.12211 -0.10777 0.383
-0.12273 -0.10777 0.383
-0.12336 -0.10777 0.383
-0.12431 -0.10805 0.384
-0.12526 -0.10833 0.385
-0.12589 -0.10833 0.385
-0.12684 -0.10861 0.386
-0.12747 -0.10861 0.386
-0.12843 -0.10889 0.387
-0.1294 -0.10917 0.388
-0.13003 -0.10917 0.388
-0.13066 -0.10917 0.388
-0.13129 -0.10917 0.388
-0.13226 -0.10945 0.389
-0.13324 -0.10974 0.39
-0.13388 -0.10974 0.39
-0.13451 -0.10974 0.39
-0.13549 -0.11002 0.391
-0.13613 -0.11002 0.391
-0.13677 -0.11002 0.391
-0.13741 -0.11002 0.391
-0.13804 -0.11002 0.391
-0.13868 -0.11002 0.391
-0.13932 -0.11002 0.391
-0.13995 -0.11002 0.391
-0.14059 -0.11002 0.391
-0.14087 -0.10974 0.39
-0.1415 -0.10974 0.39
-0.14214 -0.10974 0.39
-0.14241 -0.10945 0.389
-0.14304 -0.10945 0.389
-0.14368 -0.10945 0.389
-0.14394 -0.10917 0.388
-0.14457 -0.10917 0.388
-0.1452 -0.10917 0.388
-0.14584 -0.10917 0.388
-0.14647 -0.10917 0.388
-0.1471 -0.10917 0.388
-0.14735 -0.10889 0.387
-0.14798 -0.10889 0.387
-0.14861 -0.10889 0.387
-0.14924 -0.10889 0.387
-0.14988 -0.10889 0.387
-0.15012 -0.10861 0.386
-0.15075 -0.10861 0.386
-0.15138 -0.10861 0.386
-0.15161 -0.10833 0.385
-0.15224 -0.10833 0.385
-0.15287 -0.10833 0.385
-0.15309 -0.10805 0.384
-0.15372 -0.10805 0.384
-0.15435 -0.10805 0.384
-0.15497 -0.10805 0.384
-0.1556 -0.10805 0.384
-0.15582 -0.10777 0.383
-0.15644 -0.10777 0.383
-0.15707 -0.10777 0.383
-0.15728 -0.10748 0.382
-0.1579 -0.10748 0.382
-0.15852 -0.10748 0.382
-0.15873 -0.1072 0.381
-0.15935 -0.1072 0.381
-0.15955 -0.10692 0.38
-0.16017 -0.10692 0.38
-0.16079 -0.10692 0.38
-0.16098 -0.10664 0.379
-0.1616 -0.10664 0.379
-0.16222 -0.10664 0.379
-0.16241 -0.10636 0.378
-0.16259 -0.10608 0.377
-0.16321 -0.10608 0.377
-0.16382 -0.10608 0.377
-0.16443 -0.10608 0.377
-0.16505 -0.10608 0.377
-0.16566 -0.10608 0.377
-0.16628 -0.10608 0.377
-0.16734 -0.10636 0.378
-0.16795 -0.10636 0.378
-0.16857 -0.10636 0.378
-0.16918 -0.10636 0.378
-0.089515 -0.11377 0.402
-0.09017 -0.11377 0.402
-0.090599 -0.11348 0.401
-0.091025 -0.1132 0.4
-0.091677 -0.1132 0.4
-0.092329 -0.1132 0.4
-0.092516 -0.11263 0.398
-0.093165 -0.11263 0.398
-0.093813 -0.11263 0.398
-0.094462 -0.11263 0.398
-0.094872 -0.11235 0.397
-0.095278 -0.11207 0.396
-0.095923 -0.11207 0.396
-0.096569 -0.11207 0.396
-0.096969 -0.11179 0.395
-0.097612 -0.11179 0.395
-0.098007 -0.1115 0.394
-0.098649 -0.1115 0.394
-0.099291 -0.1115 0.394
-0.09968 -0.11122 0.393
-0.10007 -0.11094 0.392
-0.1007 -0.11094 0.392
-0.10108 -0.11065 0.391
-0.10146 -0.11037 0.39
-0.1021 -0.11037 0.39
-0.10273 -0.11037 0.39
-0.1031 -0.11009 0.389
-0.10374 -0.11009 0.389
-0.1041 -0.1098 0.388
-0.10473 -0.1098 0.388
-0.10537 -0.1098 0.388
-0.10573 -0.10952 0.387
-0.10636 -0.10952 0.387
-0.10671 -0.10924 0.386
-0.10734 -0.10924 0.386
-0.10797 -0.10924 0.386
-0.10832 -0.10896 0.385
-0.10866 -0.10867 0.384
-0.10929 -0.10867 0.384
-0.10991 -0.10867 0.384
-0.11025 -0.10839 0.383
-0.11088 -0.10839 0.383
-0.1115 -0.10839 0.383
-0.11212 -0.10839 0.383
-0.11275 -0.10839 0.383
-0.11308 -0.10811 0.382
-0.1137 -0.10811 0.382
-0.11432 -0.10811 0.382
-0.11494 -0.10811 0.382
-0.11557 -0.10811 0.382
-0.11619 -0.10811 0.382
-0.11681 -0.10811 0.382
-0.11743 -0.10811 0.382
-0.11806 -0.10811 0.382
-0.11868 -0.10811 0.382
-0.1193 -0.10811 0.382
-0.11992 -0.10811 0.382
-0.12086 -0.10839 0.383
-0.12149 -0.10839 0.383
-0.12211 -0.10839 0.383
-0.12305 -0.10867 0.384
-0.12368 -0.10867 0.384
-0.12463 -0.10896 0.385
-0.12558 -0.10924 0.386
-0.12621 -0.10924 0.386
-0.12717 -0.10952 0.387
-0.1278 -0.10952 0.387
-0.12843 -0.10952 0.387
-0.1294 -0.1098 0.388
-0.13003 -0.1098 0.388
-0.131 -0.11009 0.389
-0.13163 -0.11009 0.389
-0.13261 -0.11037 0.39
-0.13358 -0.11065 0.391
-0.13422 -0.11065 0.391
-0.13486 -0.11065 0.391
-0.13549 -0.11065 0.391
-0.13613 -0.11065 0.391
-0.13677 -0.11065 0.391
-0.13741 -0.11065 0.391
-0.13804 -0.11065 0.391
-0.13868 -0.11065 0.391
-0.13932 -0.11065 0.391
-0.13995 -0.11065 0.391
-0.14059 -0.11065 0.391
-0.14087 -0.11037 0.39
-0.1415 -0.11037 0.39
-0.14214 -0.11037 0.39
-0.14241 -0.11009 0.389
-0.14304 -0.11009 0.389
-0.14368 -0.11009 0.389
-0.14431 -0.11009 0.389
-0.14494 -0.11009 0.389
-0.1452 -0.1098 0.388
-0.14584 -0.1098 0.388
-0.14647 -0.1098 0.388
-0.1471 -0.1098 0.388
-0.14735 -0.10952 0.387
-0.14798 -0.10952 0.387
-0.14861 -0.10952 0.387
-0.14924 -0.10952 0.387
-0.14988 -0.10952 0.387
-0.15012 -0.10924 0.386
-0.15075 -0.10924 0.386
-0.15138 -0.10924 0.386
-0.152 -0.10924 0.386
-0.15263 -0.10924 0.386
-0.15287 -0.10896 0.385
-0.15349 -0.10896 0.385
-0.15412 -0.10896 0.385
-0.15435 -0.10867 0.384
-0.15497 -0.10867 0.384
-0.1556 -0.10867 0.384
-0.15622 -0.10867 0.384
-0.15644 -0.10839 0.383
-0.15707 -0.10839 0.383
-0.15769 -0.10839 0.383
-0.1579 -0.10811 0.382
-0.15852 -0.10811 0.382
-0.15915 -0.10811 0.382
-0.15977 -0.10811 0.382
-0.15997 -0.10782 0.381
-0.16017 -0.10754 0.38
-0.16079 -0.10754 0.38
-0.16098 -0.10726 0.379
-0.1616 -0.10726 0.379
-0.16222 -0.10726 0.379
-0.16241 -0.10698 0.378
-0.16259 -0.10669 0.377
-0.16321 -0.10669 0.377
-0.16382 -0.10669 0.377
-0.16443 -0.10669 0.377
-0.16505 -0.10669 0.377
-0.16566 -0.10669 0.377
-0.16628 -0.10669 0.377
-0.16734 -0.10698 0.378
-0.16795 -0.10698 0.378
-0.16857 -0.10698 0.378
-0.16918 -0.10698 0.378
-0.089738 -0.11471 0.403
-0.090394 -0.11471 0.403
-0.091051 -0.11471 0.403
-0.091253 -0.11414 0.401
-0.091906 -0.11414 0.401
-0.09256 -0.11414 0.401
-0.093213 -0.11414 0.401
-0.093633 -0.11385 0.4
-0.094049 -0.11357 0.399
-0.094699 -0.11357 0.399
-0.095111 -0.11328 0.398
-0.095519 -0.113 0.397
-0.096166 -0.113 0.397
-0.096569 -0.11271 0.396
-0.097214 -0.11271 0.396
-0.097859 -0.11271 0.396
-0.098256 -0.11243 0.395
-0.098649 -0.11214 0.394
-0.099291 -0.11214 0.394
-0.09968 -0.11186 0.393
-0.10032 -0.11186 0.393
-0.10096 -0.11186 0.393
-0.10134 -0.11158 0.392
-0.10172 -0.11129 0.391
-0.10236 -0.11129 0.391
-0.10273 -0.11101 0.39
-0.10337 -0.11101 0.39
-0.104 -0.11101 0.39
-0.10437 -0.11072 0.389
-0.10501 -0.11072 0.389
-0.10537 -0.11044 0.388
-0.106 -0.11044 0.388
-0.10663 -0.11044 0.388
-0.10699 -0.11015 0.387
-0.10734 -0.10987 0.386
-0.10797 -0.10987 0.386
-0.1086 -0.10987 0.386
-0.10895 -0.10958 0.385
-0.10957 -0.10958 0.385
-0.1102 -0.10958 0.385
-0.11054 -0.1093 0.384
-0.11116 -0.1093 0.384
-0.11179 -0.1093 0.384
-0.11212 -0.10901 0.383
-0.11275 -0.10901 0.383
-0.11337 -0.10901 0.383
-0.114 -0.10901 0.383
-0.11462 -0.10901 0.383
-0.11525 -0.10901 0.383
-0.11587 -0.10901 0.383
-0.11649 -0.10901 0.383
-0.11712 -0.10901 0.383
-0.11774 -0.10901 0.383
-0.11837 -0.10901 0.383
-0.11899 -0.10901 0.383
-0.11961 -0.10901 0.383
-0.12024 -0.10901 0.383
-0.12086 -0.10901 0.383
-0.12149 -0.10901 0.383
-0.12243 -0.1093 0.384
-0.12338 -0.10958 0.385
-0.124 -0.10958 0.385
-0.12463 -0.10958 0.385
-0.12558 -0.10987 0.386
-0.12621 -0.10987 0.386
-0.12717 -0.11015 0.387
-0.1278 -0.11015 0.387
-0.12843 -0.11015 0.387
-0.1294 -0.11044 0.388
-0.13003 -0.11044 0.388
-0.131 -0.11072 0.389
-0.13163 -0.11072 0.389
-0.13261 -0.11101 0.39
-0.13358 -0.11129 0.391
-0.13422 -0.11129 0.391
-0.13486 -0.11129 0.391
-0.13549 -0.11129 0.391
-0.13613 -0.11129 0.391
-0.13677 -0.11129 0.391
-0.13741 -0.11129 0.391
-0.13804 -0.11129 0.391
-0.13868 -0.11129 0.391
-0.13932 -0.11129 0.391
-0.13995 -0.11129 0.391
-0.14059 -0.11129 0.391
-0.14087 -0.11101 0.39
-0.1415 -0.11101 0.39
-0.14214 -0.11101 0.39
-0.14241 -0.11072 0.389
-0.14304 -0.11072 0.389
-0.14368 -0.11072 0.389
-0.14431 -0.11072 0.389
-0.14494 -0.11072 0.389
-0.1452 -0.11044 0.388
-0.14584 -0.11044 0.388
-0.14647 -0.11044 0.388
-0.1471 -0.11044 0.388
-0.14735 -0.11015 0.387
-0.14798 -0.11015 0.387
-0.14861 -0.11015 0.387
-0.14924 -0.11015 0.387
-0.14988 -0.11015 0.387
-0.15012 -0.10987 0.386
-0.15075 -0.10987 0.386
-0.15138 -0.10987 0.386
-0.152 -0.10987 0.386
-0.15263 -0.10987 0.386
-0.15287 -0.10958 0.385
-0.15349 -0.10958 0.385
-0.15412 -0.10958 0.385
-0.15435 -0.1093 0.384
-0.15497 -0.1093 0.384
-0.1556 -0.1093 0.384
-0.15622 -0.1093 0.384
-0.15644 -0.10901 0.383
-0.15707 -0.10901 0.383
-0.15769 -0.10901 0.383
-0.1579 -0.10873 0.382
-0.15852 -0.10873 0.382
-0.15915 -0.10873 0.382
-0.15977 -0.10873 0.382
-0.15997 -0.10844 0.381
-0.16017 -0.10816 0.38
-0.16079 -0.10816 0.38
-0.16098 -0.10788 0.379
-0.1616 -0.10788 0.379
-0.16222 -0.10788 0.379
-0.16241 -0.10759 0.378
-0.16302 -0.10759 0.378
-0.16364 -0.10759 0.378
-0.16426 -0.10759 0.378
-0.16443 -0.10731 0.377
-0.16505 -0.10731 0.377
-0.16566 -0.10731 0.377
-0.16628 -0.10731 0.377
-0.16734 -0.10759 0.378
-0.16795 -0.10759 0.378
-0.089738 -0.11536 0.403
-0.090394 -0.11536 0.403
-0.091051 -0.11536 0.403
-0.091253 -0.11479 0.401
-0.091906 -0.11479 0.401
-0.09256 -0.11479 0.401
-0.093213 -0.11479 0.401
-0.093633 -0.1145 0.4
-0.094049 -0.11422 0.399
-0.094699 -0.11422 0.399
-0.095111 -0.11393 0.398
-0.095519 -0.11365 0.397
-0.096166 -0.11365 0.397
-0.096569 -0.11336 0.396
-0.097214 -0.11336 0.396
-0.097859 -0.11336 0.396
-0.098256 -0.11307 0.395
-0.098649 -0.11279 0.394
-0.099291 -0.11279 0.394
-0.09968 -0.1125 0.393
-0.10032 -0.1125 0.393
-0.10096 -0.1125 0.393
-0.10134 -0.11221 0.392
-0.10172 -0.11193 0.391
-0.10236 -0.11193 0.391
-0.10273 -0.11164 0.39
-0.10337 -0.11164 0.39
-0.104 -0.11164 0.39
-0.10437 -0.11136 0.389
-0.10501 -0.11136 0.389
-0.10537 -0.11107 0.388
-0.106 -0.11107 0.388
-0.10663 -0.11107 0.388
-0.10699 -0.11078 0.387
-0.10734 -0.1105 0.386
-0.10797 -0.1105 0.386
-0.1086 -0.1105 0.386
-0.10895 -0.11021 0.385
-0.10957 -0.11021 0.385
-0.1102 -0.11021 0.385
-0.11054 -0.10992 0.384
-0.11116 -0.10992 0.384
-0.11179 -0.10992 0.384
-0.11212 -0.10964 0.383
-0.11275 -0.10964 0.383
-0.11337 -0.10964 0.383
-0.114 -0.10964 0.383
-0.11462 -0.10964 0.383
-0.11525 -0.10964 0.383
-0.11587 -0.10964 0.383
-0.11649 -0.10964 0.383
-0.11712 -0.10964 0.383
-0.11774 -0.10964 0.383
-0.11837 -0.10964 0.383
-0.11899 -0.10964 0.383
-0.11961 -0.10964 0.383
-0.12024 -0.10964 0.383
-0.12086 -0.10964 0.383
-0.12149 -0.10964 0.383
-0.12243 -0.10992 0.384
-0.12338 -0.11021 0.385
-0.124 -0.11021 0.385
-0.12463 -0.11021 0.385
-0.12558 -0.1105 0.386
-0.12621 -0.1105 0.386
-0.12717 -0.11078 0.387
-0.1278 -0.11078 0.387
-0.12876 -0.11107 0.388
-0.12973 -0.11136 0.389
-0.13036 -0.11136 0.389
-0.131 -0.11136 0.389
-0.13163 -0.11136 0.389
-0.13261 -0.11164 0.39
-0.13358 -0.11193 0.391
-0.13422 -0.11193 0.391
-0.13486 -0.11193 0.391
-0.13549 -0.11193 0.391
-0.13613 -0.11193 0.391
-0.13677 -0.11193 0.391
-0.13741 -0.11193 0.391
-0.13804 -0.11193 0.391
-0.13868 -0.11193 0.391
-0.13932 -0.11193 0.391
-0.13995 -0.11193 0.391
-0.14059 -0.11193 0.391
-0.14087 -0.11164 0.39
-0.1415 -0.11164 0.39
-0.14214 -0.11164 0.39
-0.14241 -0.11136 0.389
-0.14304 -0.11136 0.389
-0.14368 -0.11136 0.389
-0.14431 -0.11136 0.389
-0.14494 -0.11136 0.389
-0.1452 -0.11107 0.388
-0.14584 -0.11107 0.388
-0.14647 -0.11107 0.388
-0.1471 -0.11107 0.388
-0.14735 -0.11078 0.387
-0.14798 -0.11078 0.387
-0.14861 -0.11078 0.387
-0.14924 -0.11078 0.387
-0.14988 -0.11078 0.387
-0.15051 -0.11078 0.387
-0.15075 -0.1105 0.386
-0.15138 -0.1105 0.386
-0.152 -0.1105 0.386
-0.15263 -0.1105 0.386
-0.15287 -0.11021 0.385
-0.15349 -0.11021 0.385
-0.15412 -0.11021 0.385
-0.15475 -0.11021 0.385
-0.15497 -0.10992 0.384
-0.1556 -0.10992 0.384
-0.15622 -0.10992 0.384
-0.15685 -0.10992 0.384
-0.15748 -0.10992 0.384
-0.15769 -0.10964 0.383
-0.15831 -0.10964 0.383
-0.15894 -0.10964 0.383
-0.15915 -0.10935 0.382
-0.15977 -0.10935 0.382
-0.16039 -0.10935 0.382
-0.16059 -0.10907 0.381
-0.16121 -0.10907 0.381
-0.16141 -0.10878 0.38
-0.1616 -0.10849 0.379
-0.16222 -0.10849 0.379
-0.16284 -0.10849 0.379
-0.16302 -0.10821 0.378
-0.16364 -0.10821 0.378
-0.16426 -0.10821 0.378
-0.16487 -0.10821 0.378
-0.16549 -0.10821 0.378
-0.1661 -0.10821 0.378
-0.16672 -0.10821 0.378
-0.090628 -0.11804 0.41
-0.091296 -0.11804 0.41
-0.091965 -0.11804 0.41
-0.091277 -0.11631 0.404
-0.091936 -0.11631 0.404
-0.092365 -0.11602 0.403
-0.093022 -0.11602 0.403
-0.093678 -0.11602 0.403
-0.094101 -0.11573 0.402
-0.09452 -0.11544 0.401
-0.095174 -0.11544 0.401
-0.095349 -0.11487 0.399
-0.095759 -0.11458 0.398
-0.096408 -0.11458 0.398
-0.096813 -0.11429 0.397
-0.097214 -0.114 0.396
-0.097859 -0.114 0.396
-0.098505 -0.114 0.396
-0.0989 -0.11372 0.395
-0.099543 -0.11372 0.395
-0.099934 -0.11343 0.394
-0.10058 -0.11343 0.394
-0.10122 -0.11343 0.394
-0.1016 -0.11314 0.393
-0.10198 -0.11285 0.392
-0.10262 -0.11285 0.392
-0.103 -0.11256 0.391
-0.10363 -0.11256 0.391
-0.10427 -0.11256 0.391
-0.10464 -0.11228 0.39
-0.10527 -0.11228 0.39
-0.10564 -0.11199 0.389
-0.10627 -0.11199 0.389
-0.10691 -0.11199 0.389
-0.10726 -0.1117 0.388
-0.10762 -0.11141 0.387
-0.10825 -0.11141 0.387
-0.10888 -0.11141 0.387
-0.10923 -0.11113 0.386
-0.10986 -0.11113 0.386
-0.11049 -0.11113 0.386
-0.11083 -0.11084 0.385
-0.11145 -0.11084 0.385
-0.11208 -0.11084 0.385
-0.11242 -0.11055 0.384
-0.11304 -0.11055 0.384
-0.11367 -0.11055 0.384
-0.11429 -0.11055 0.384
-0.11492 -0.11055 0.384
-0.11555 -0.11055 0.384
-0.11617 -0.11055 0.384
-0.1168 -0.11055 0.384
-0.11742 -0.11055 0.384
-0.11805 -0.11055 0.384
-0.11868 -0.11055 0.384
-0.1193 -0.11055 0.384
-0.11993 -0.11055 0.384
-0.12055 -0.11055 0.384
-0.12118 -0.11055 0.384
-0.1218 -0.11055 0.384
-0.12275 -0.11084 0.385
-0.12338 -0.11084 0.385
-0.124 -0.11084 0.385
-0.12495 -0.11113 0.386
-0.12558 -0.11113 0.386
-0.12654 -0.11141 0.387
-0.1275 -0.1117 0.388
-0.12813 -0.1117 0.388
-0.12876 -0.1117 0.388
-0.12973 -0.11199 0.389
-0.13036 -0.11199 0.389
-0.13133 -0.11228 0.39
-0.13197 -0.11228 0.39
-0.13261 -0.11228 0.39
-0.13358 -0.11256 0.391
-0.13422 -0.11256 0.391
-0.13486 -0.11256 0.391
-0.13549 -0.11256 0.391
-0.13613 -0.11256 0.391
-0.13677 -0.11256 0.391
-0.13741 -0.11256 0.391
-0.13804 -0.11256 0.391
-0.13868 -0.11256 0.391
-0.13932 -0.11256 0.391
-0.13995 -0.11256 0.391
-0.14059 -0.11256 0.391
-0.14087 -0.11228 0.39
-0.1415 -0.11228 0.39
-0.14214 -0.11228 0.39
-0.14241 -0.11199 0.389
-0.14304 -0.11199 0.389
-0.14368 -0.11199 0.389
-0.14431 -0.11199 0.389
-0.14494 -0.11199 0.389
-0.1452 -0.1117 0.388
-0.14584 -0.1117 0.388
-0.14647 -0.1117 0.388
-0.1471 -0.1117 0.388
-0.14735 -0.11141 0.387
-0.14798 -0.11141 0.387
-0.14861 -0.11141 0.387
-0.14924 -0.11141 0.387
-0.14988 -0.11141 0.387
-0.15051 -0.11141 0.387
-0.15075 -0.11113 0.386
-0.15138 -0.11113 0.386
-0.152 -0.11113 0.386
-0.15263 -0.11113 0.386
-0.15326 -0.11113 0.386
-0.15349 -0.11084 0.385
-0.15412 -0.11084 0.385
-0.15475 -0.11084 0.385
-0.15497 -0.11055 0.384
-0.1556 -0.11055 0.384
-0.15622 -0.11055 0.384
-0.15685 -0.11055 0.384
-0.15748 -0.11055 0.384
-0.15769 -0.11026 0.383
-0.15831 -0.11026 0.383
-0.15894 -0.11026 0.383
-0.15915 -0.10997 0.382
-0.15977 -0.10997 0.382
-0.16039 -0.10997 0.382
-0.16059 -0.10969 0.381
-0.16121 -0.10969 0.381
-0.16141 -0.1094 0.38
-0.1616 -0.10911 0.379
-0.16222 -0.10911 0.379
-0.16284 -0.10911 0.379
-0.16302 -0.10882 0.378
-0.16364 -0.10882 0.378
-0.16426 -0.10882 0.378
-0.16487 -0.10882 0.378
-0.16549 -0.10882 0.378
-0.1661 -0.10882 0.378
-0.16672 -0.10882 0.378
-0.090628 -0.1187 0.41
-0.091296 -0.1187 0.41
-0.091965 -0.1187 0.41
-0.091955 -0.11783 0.407
-0.092618 -0.11783 0.407
-0.093282 -0.11783 0.407
-0.094569 -0.11697 0.404
-0.094992 -0.11668 0.403
-0.095649 -0.11668 0.403
-0.095827 -0.1161 0.401
-0.096 -0.11552 0.399
-0.09665 -0.11552 0.399
-0.097056 -0.11523 0.398
-0.09746 -0.11494 0.397
-0.098107 -0.11494 0.397
-0.098754 -0.11494 0.397
-0.09915 -0.11465 0.396
-0.099796 -0.11465 0.396
-0.10019 -0.11436 0.395
-0.10083 -0.11436 0.395
-0.10147 -0.11436 0.395
-0.10186 -0.11407 0.394
-0.1025 -0.11407 0.394
-0.10288 -0.11378 0.393
-0.10352 -0.11378 0.393
-0.10416 -0.11378 0.393
-0.10454 -0.11349 0.392
-0.10491 -0.1132 0.391
-0.10554 -0.1132 0.391
-0.10591 -0.11291 0.39
-0.10655 -0.11291 0.39
-0.10718 -0.11291 0.39
-0.10754 -0.11262 0.389
-0.1079 -0.11233 0.388
-0.10853 -0.11233 0.388
-0.10916 -0.11233 0.388
-0.10951 -0.11204 0.387
-0.11014 -0.11204 0.387
-0.11077 -0.11204 0.387
-0.11112 -0.11175 0.386
-0.11174 -0.11175 0.386
-0.11237 -0.11175 0.386
-0.11242 -0.11118 0.384
-0.11304 -0.11118 0.384
-0.11367 -0.11118 0.384
-0.11429 -0.11118 0.384
-0.11492 -0.11118 0.384
-0.11555 -0.11118 0.384
-0.11617 -0.11118 0.384
-0.1168 -0.11118 0.384
-0.11742 -0.11118 0.384
-0.11805 -0.11118 0.384
-0.11868 -0.11118 0.384
-0.1193 -0.11118 0.384
-0.11993 -0.11118 0.384
-0.12055 -0.11118 0.384
-0.12118 -0.11118 0.384
-0.1218 -0.11118 0.384
-0.12275 -0.11146 0.385
-0.12338 -0.11146 0.385
-0.124 -0.11146 0.385
-0.12495 -0.11175 0.386
-0.12558 -0.11175 0.386
-0.12654 -0.11204 0.387
-0.1275 -0.11233 0.388
-0.12813 -0.11233 0.388
-0.12876 -0.11233 0.388
-0.12973 -0.11262 0.389
-0.13036 -0.11262 0.389
-0.13133 -0.11291 0.39
-0.13197 -0.11291 0.39
-0.13261 -0.11291 0.39
-0.13358 -0.1132 0.391
-0.13422 -0.1132 0.391
-0.13486 -0.1132 0.391
-0.13549 -0.1132 0.391
-0.13613 -0.1132 0.391
-0.13677 -0.1132 0.391
-0.13741 -0.1132 0.391
-0.13804 -0.1132 0.391
-0.13868 -0.1132 0.391
-0.13932 -0.1132 0.391
-0.13995 -0.1132 0.391
-0.14059 -0.1132 0.391
-0.14087 -0.11291 0.39
-0.1415 -0.11291 0.39
-0.14214 -0.11291 0.39
-0.14241 -0.11262 0.389
-0.14304 -0.11262 0.389
-0.14368 -0.11262 0.389
-0.14394 -0.11233 0.388
-0.14457 -0.11233 0.388
-0.1452 -0.11233 0.388
-0.14584 -0.11233 0.388
-0.14647 -0.11233 0.388
-0.14672 -0.11204 0.387
-0.14735 -0.11204 0.387
-0.14798 -0.11204 0.387
-0.14861 -0.11204 0.387
-0.14924 -0.11204 0.387
-0.14988 -0.11204 0.387
-0.15012 -0.11175 0.386
-0.15075 -0.11175 0.386
-0.15138 -0.11175 0.386
-0.152 -0.11175 0.386
-0.15263 -0.11175 0.386
-0.15326 -0.11175 0.386
-0.15349 -0.11146 0.385
-0.15412 -0.11146 0.385
-0.15475 -0.11146 0.385
-0.15538 -0.11146 0.385
-0.156 -0.11146 0.385
-0.15622 -0.11118 0.384
-0.15685 -0.11118 0.384
-0.15748 -0.11118 0.384
-0.1581 -0.11118 0.384
-0.15831 -0.11089 0.383
-0.15894 -0.11089 0.383
-0.15915 -0.1106 0.382
-0.15977 -0.1106 0.382
-0.16039 -0.1106 0.382
-0.16059 -0.11031 0.381
-0.16121 -0.11031 0.381
-0.16141 -0.11002 0.38
-0.16203 -0.11002 0.38
-0.16265 -0.11002 0.38
-0.16284 -0.10973 0.379
-0.16345 -0.10973 0.379
-0.16407 -0.10973 0.379
-0.16426 -0.10944 0.378
-0.16487 -0.10944 0.378
-0.16549 -0.10944 0.378
-0.1661 -0.10944 0.378
-0.090628 -0.11937 0.41
-0.091296 -0.11937 0.41
-0.091965 -0.11937 0.41
-0.091955 -0.1185 0.407
-0.092618 -0.1185 0.407
-0.093282 -0.1185 0.407
-0.094406 -0.11908 0.409
-0.094569 -0.11762 0.404
-0.094992 -0.11733 0.403
-0.095649 -0.11733 0.403
-0.095827 -0.11675 0.401
-0.096 -0.11617 0.399
-0.09665 -0.11617 0.399
-0.097056 -0.11588 0.398
-0.09746 -0.11559 0.397
-0.098107 -0.11559 0.397
-0.098754 -0.11559 0.397
-0.09915 -0.11529 0.396
-0.099796 -0.11529 0.396
-0.10019 -0.115 0.395
-0.10083 -0.115 0.395
-0.10147 -0.115 0.395
-0.10186 -0.11471 0.394
-0.1025 -0.11471 0.394
-0.10288 -0.11442 0.393
-0.10352 -0.11442 0.393
-0.10416 -0.11442 0.393
-0.10454 -0.11413 0.392
-0.10491 -0.11384 0.391
-0.10554 -0.11384 0.391
-0.10591 -0.11355 0.39
-0.10655 -0.11355 0.39
-0.10718 -0.11355 0.39
-0.10754 -0.11326 0.389
-0.1079 -0.11297 0.388
-0.10853 -0.11297 0.388
-0.10916 -0.11297 0.388
-0.10951 -0.11267 0.387
-0.11014 -0.11267 0.387
-0.11077 -0.11267 0.387
-0.11112 -0.11238 0.386
-0.11174 -0.11238 0.386
-0.11237 -0.11238 0.386
-0.113 -0.11238 0.386
-0.11334 -0.11209 0.385
-0.11396 -0.11209 0.385
-0.11459 -0.11209 0.385
-0.11522 -0.11209 0.385
-0.11585 -0.11209 0.385
-0.11647 -0.11209 0.385
-0.1171 -0.11209 0.385
-0.11773 -0.11209 0.385
-0.11836 -0.11209 0.385
-0.11898 -0.11209 0.385
-0.11961 -0.11209 0.385
-0.12024 -0.11209 0.385
-0.12087 -0.11209 0.385
-0.12149 -0.11209 0.385
-0.12212 -0.11209 0.385
-0.12275 -0.11209 0.385
-0.1237 -0.11238 0.386
-0.12433 -0.11238 0.386
-0.12528 -0.11267 0.387
-0.12591 -0.11267 0.387
-0.12654 -0.11267 0.387
-0.1275 -0.11297 0.388
-0.12813 -0.11297 0.388
-0.12909 -0.11326 0.389
-0.12973 -0.11326 0.389
-0.13036 -0.11326 0.389
-0.13133 -0.11355 0.39
-0.13197 -0.11355 0.39
-0.13295 -0.11384 0.391
-0.13358 -0.11384 0.391
-0.13422 -0.11384 0.391
-0.13486 -0.11384 0.391
-0.13549 -0.11384 0.391
-0.13613 -0.11384 0.391
-0.13677 -0.11384 0.391
-0.13741 -0.11384 0.391
-0.13804 -0.11384 0.391
-0.13868 -0.11384 0.391
-0.13932 -0.11384 0.391
-0.1396 -0.11355 0.39
-0.14023 -0.11355 0.39
-0.14087 -0.11355 0.39
-0.1415 -0.11355 0.39
-0.14214 -0.11355 0.39
-0.14241 -0.11326 0.389
-0.14304 -0.11326 0.389
-0.14368 -0.11326 0.389
-0.14394 -0.11297 0.388
-0.14457 -0.11297 0.388
-0.1452 -0.11297 0.388
-0.14584 -0.11297 0.388
-0.14647 -0.11297 0.388
-0.14672 -0.11267 0.387
-0.14735 -0.11267 0.387
-0.14798 -0.11267 0.387
-0.14861 -0.11267 0.387
-0.14924 -0.11267 0.387
-0.14988 -0.11267 0.387
-0.15012 -0.11238 0.386
-0.15075 -0.11238 0.386
-0.15138 -0.11238 0.386
-0.152 -0.11238 0.386
-0.15263 -0.11238 0.386
-0.15326 -0.11238 0.386
-0.15349 -0.11209 0.385
-0.15412 -0.11209 0.385
-0.15475 -0.11209 0.385
-0.15538 -0.11209 0.385
-0.156 -0.11209 0.385
-0.15663 -0.11209 0.385
-0.15726 -0.11209 0.385
-0.15788 -0.11209 0.385
-0.1581 -0.1118 0.384
-0.15873 -0.1118 0.384
-0.15935 -0.1118 0.384
-0.15956 -0.11151 0.383
-0.16019 -0.11151 0.383
-0.16039 -0.11122 0.382
-0.16059 -0.11093 0.381
-0.16121 -0.11093 0.381
-0.16183 -0.11093 0.381
-0.16203 -0.11064 0.38
-0.16265 -0.11064 0.38
-0.16284 -0.11035 0.379
-0.16345 -0.11035 0.379
-0.16487 -0.11005 0.378
-0.16549 -0.11005 0.378
-0.1661 -0.11005 0.378
-0.092413 -0.12062 0.412
-0.092859 -0.12033 0.411
-0.093528 -0.12033 0.411
-0.09374 -0.11975 0.409
-0.094406 -0.11975 0.409
-0.095305 -0.12004 0.41
-0.095037 -0.11887 0.406
-0.095463 -0.11857 0.405
-0.096123 -0.11857 0.405
-0.096305 -0.11799 0.403
-0.096481 -0.1174 0.401
-0.097134 -0.1174 0.401
-0.097544 -0.11711 0.4
-0.097951 -0.11682 0.399
-0.098601 -0.11682 0.399
-0.099002 -0.11653 0.398
-0.099401 -0.11623 0.397
-0.10005 -0.11623 0.397
-0.10069 -0.11623 0.397
-0.10134 -0.11623 0.397
-0.10173 -0.11594 0.396
-0.10212 -0.11565 0.395
-0.10276 -0.11565 0.395
-0.10341 -0.11565 0.395
-0.10379 -0.11535 0.394
-0.10443 -0.11535 0.394
-0.1048 -0.11506 0.393
-0.10518 -0.11477 0.392
-0.10582 -0.11477 0.392
-0.10645 -0.11477 0.392
-0.10682 -0.11448 0.391
-0.10746 -0.11448 0.391
-0.10782 -0.11418 0.39
-0.10817 -0.11389 0.389
-0.10881 -0.11389 0.389
-0.10944 -0.11389 0.389
-0.10979 -0.1136 0.388
-0.11043 -0.1136 0.388
-0.11106 -0.1136 0.388
-0.1114 -0.11331 0.387
-0.11203 -0.11331 0.387
-0.11266 -0.11331 0.387
-0.1133 -0.11331 0.387
-0.11393 -0.11331 0.387
-0.11426 -0.11301 0.386
-0.11489 -0.11301 0.386
-0.11552 -0.11301 0.386
-0.11615 -0.11301 0.386
-0.11678 -0.11301 0.386
-0.11741 -0.11301 0.386
-0.11804 -0.11301 0.386
-0.11866 -0.11301 0.386
-0.11929 -0.11301 0.386
-0.11992 -0.11301 0.386
-0.12055 -0.11301 0.386
-0.12118 -0.11301 0.386
-0.12181 -0.11301 0.386
-0.12244 -0.11301 0.386
-0.12307 -0.11301 0.386
-0.12402 -0.11331 0.387
-0.12465 -0.11331 0.387
-0.1256 -0.1136 0.388
-0.12623 -0.1136 0.388
-0.12687 -0.1136 0.388
-0.1275 -0.1136 0.388
-0.12813 -0.1136 0.388
-0.12909 -0.11389 0.389
-0.13006 -0.11418 0.39
-0.1307 -0.11418 0.39
-0.13133 -0.11418 0.39
-0.13197 -0.11418 0.39
-0.13295 -0.11448 0.391
-0.13358 -0.11448 0.391
-0.13422 -0.11448 0.391
-0.13486 -0.11448 0.391
-0.13549 -0.11448 0.391
-0.13613 -0.11448 0.391
-0.13677 -0.11448 0.391
-0.13741 -0.11448 0.391
-0.13804 -0.11448 0.391
-0.13868 -0.11448 0.391
-0.13932 -0.11448 0.391
-0.1396 -0.11418 0.39
-0.14023 -0.11418 0.39
-0.14087 -0.11418 0.39
-0.1415 -0.11418 0.39
-0.14214 -0.11418 0.39
-0.14241 -0.11389 0.389
-0.14304 -0.11389 0.389
-0.14368 -0.11389 0.389
-0.14394 -0.1136 0.388
-0.14457 -0.1136 0.388
-0.1452 -0.1136 0.388
-0.14584 -0.1136 0.388
-0.14647 -0.1136 0.388
-0.14672 -0.11331 0.387
-0.14735 -0.11331 0.387
-0.14798 -0.11331 0.387
-0.14861 -0.11331 0.387
-0.14886 -0.11301 0.386
-0.14949 -0.11301 0.386
-0.15012 -0.11301 0.386
-0.15075 -0.11301 0.386
-0.15138 -0.11301 0.386
-0.152 -0.11301 0.386
-0.15263 -0.11301 0.386
-0.15326 -0.11301 0.386
-0.15349 -0.11272 0.385
-0.15412 -0.11272 0.385
-0.15475 -0.11272 0.385
-0.15538 -0.11272 0.385
-0.156 -0.11272 0.385
-0.15663 -0.11272 0.385
-0.15726 -0.11272 0.385
-0.15788 -0.11272 0.385
-0.1581 -0.11243 0.384
-0.15873 -0.11243 0.384
-0.15935 -0.11243 0.384
-0.15956 -0.11213 0.383
-0.16019 -0.11213 0.383
-0.16039 -0.11184 0.382
-0.16059 -0.11155 0.381
-0.16121 -0.11155 0.381
-0.16183 -0.11155 0.381
-0.16203 -0.11126 0.38
-0.16265 -0.11126 0.38
-0.16284 -0.11096 0.379
-0.16345 -0.11096 0.379
-0.16487 -0.11067 0.378
-0.16549 -0.11067 0.378
-0.1661 -0.11067 0.378
-0.094211 -0.12188 0.414
-0.094427 -0.1213 0.412
-0.094637 -0.12071 0.41
-0.095305 -0.12071 0.41
-0.09574 -0.12041 0.409
-0.096406 -0.12041 0.409
-0.096835 -0.12012 0.408
-0.096783 -0.11923 0.405
-0.096962 -0.11865 0.403
-0.097619 -0.11865 0.403
-0.098032 -0.11835 0.402
-0.098441 -0.11806 0.401
-0.099095 -0.11806 0.401
-0.0995 -0.11776 0.4
-0.10015 -0.11776 0.4
-0.10055 -0.11747 0.399
-0.10095 -0.11717 0.398
-0.1016 -0.11717 0.398
-0.10225 -0.11717 0.398
-0.10264 -0.11688 0.397
-0.10328 -0.11688 0.397
-0.10341 -0.11629 0.395
-0.10379 -0.116 0.394
-0.10443 -0.116 0.394
-0.1048 -0.1157 0.393
-0.10518 -0.11541 0.392
-0.10582 -0.11541 0.392
-0.10645 -0.11541 0.392
-0.10682 -0.11511 0.391
-0.10746 -0.11511 0.391
-0.10782 -0.11482 0.39
-0.10817 -0.11453 0.389
-0.10881 -0.11453 0.389
-0.10944 -0.11453 0.389
-0.10979 -0.11423 0.388
-0.11043 -0.11423 0.388
-0.11106 -0.11423 0.388
-0.1114 -0.11394 0.387
-0.11203 -0.11394 0.387
-0.11266 -0.11394 0.387
-0.1133 -0.11394 0.387
-0.11393 -0.11394 0.387
-0.11426 -0.11364 0.386
-0.11489 -0.11364 0.386
-0.11552 -0.11364 0.386
-0.11615 -0.11364 0.386
-0.11678 -0.11364 0.386
-0.11741 -0.11364 0.386
-0.11804 -0.11364 0.386
-0.11866 -0.11364 0.386
-0.11929 -0.11364 0.386
-0.11992 -0.11364 0.386
-0.12055 -0.11364 0.386
-0.12118 -0.11364 0.386
-0.12181 -0.11364 0.386
-0.12244 -0.11364 0.386
-0.12307 -0.11364 0.386
-0.12402 -0.11394 0.387
-0.12465 -0.11394 0.387
-0.1256 -0.11423 0.388
-0.12623 -0.11423 0.388
-0.12687 -0.11423 0.388
-0.1275 -0.11423 0.388
-0.12813 -0.11423 0.388
-0.12909 -0.11453 0.389
-0.13006 -0.11482 0.39
-0.1307 -0.11482 0.39
-0.13133 -0.11482 0.39
-0.13197 -0.11482 0.39
-0.13295 -0.11511 0.391
-0.13358 -0.11511 0.391
-0.13422 -0.11511 0.391
-0.13486 -0.11511 0.391
-0.13549 -0.11511 0.391
-0.13613 -0.11511 0.391
-0.13677 -0.11511 0.391
-0.13741 -0.11511 0.391
-0.13804 -0.11511 0.391
-0.13868 -0.11511 0.391
-0.13932 -0.11511 0.391
-0.1396 -0.11482 0.39
-0.14023 -0.11482 0.39
-0.14087 -0.11482 0.39
-0.14114 -0.11453 0.389
-0.14177 -0.11453 0.389
-0.14241 -0.11453 0.389
-0.14304 -0.11453 0.389
-0.14368 -0.11453 0.389
-0.14394 -0.11423 0.388
-0.14457 -0.11423 0.388
-0.1452 -0.11423 0.388
-0.14584 -0.11423 0.388
-0.14647 -0.11423 0.388
-0.14672 -0.11394 0.387
-0.14735 -0.11394 0.387
-0.14798 -0.11394 0.387
-0.14861 -0.11394 0.387
-0.14886 -0.11364 0.386
-0.14949 -0.11364 0.386
-0.15012 -0.11364 0.386
-0.15075 -0.11364 0.386
-0.15138 -0.11364 0.386
-0.152 -0.11364 0.386
-0.15263 -0.11364 0.386
-0.15326 -0.11364 0.386
-0.15389 -0.11364 0.386
-0.15452 -0.11364 0.386
-0.15475 -0.11335 0.385
-0.15538 -0.11335 0.385
-0.156 -0.11335 0.385
-0.15663 -0.11335 0.385
-0.15726 -0.11335 0.385
-0.15788 -0.11335 0.385
-0.15851 -0.11335 0.385
-0.15873 -0.11305 0.384
-0.15935 -0.11305 0.384
-0.15998 -0.11305 0.384
-0.16101 -0.11246 0.382
-0.16164 -0.11246 0.382
-0.16183 -0.11217 0.381
-0.16203 -0.11188 0.38
-0.16265 -0.11188 0.38
-0.16327 -0.11188 0.38
-0.16389 -0.11188 0.38
-0.094211 -0.12256 0.414
-0.094427 -0.12197 0.412
-0.094637 -0.12137 0.41
-0.095305 -0.12137 0.41
-0.09574 -0.12108 0.409
-0.096406 -0.12108 0.409
-0.096835 -0.12078 0.408
-0.096783 -0.1199 0.405
-0.096962 -0.1193 0.403
-0.097619 -0.1193 0.403
-0.098032 -0.11901 0.402
-0.098441 -0.11871 0.401
-0.099095 -0.11871 0.401
-0.0995 -0.11842 0.4
-0.10015 -0.11842 0.4
-0.10055 -0.11812 0.399
-0.10095 -0.11782 0.398
-0.1016 -0.11782 0.398
-0.10225 -0.11782 0.398
-0.10264 -0.11753 0.397
-0.10328 -0.11753 0.397
-0.10367 -0.11723 0.396
-0.10405 -0.11693 0.395
-0.10469 -0.11693 0.395
-0.10507 -0.11664 0.394
-0.10544 -0.11634 0.393
-0.10608 -0.11634 0.393
-0.10673 -0.11634 0.393
-0.10709 -0.11605 0.392
-0.10773 -0.11605 0.392
-0.10809 -0.11575 0.391
-0.10873 -0.11575 0.391
-0.10937 -0.11575 0.391
-0.10972 -0.11546 0.39
-0.11008 -0.11516 0.389
-0.11071 -0.11516 0.389
-0.11134 -0.11516 0.389
-0.11198 -0.11516 0.389
-0.11261 -0.11516 0.389
-0.11295 -0.11486 0.388
-0.11359 -0.11486 0.388
-0.11422 -0.11486 0.388
-0.11485 -0.11486 0.388
-0.11549 -0.11486 0.388
-0.11612 -0.11486 0.388
-0.11675 -0.11486 0.388
-0.11738 -0.11486 0.388
-0.11801 -0.11486 0.388
-0.11865 -0.11486 0.388
-0.11928 -0.11486 0.388
-0.11991 -0.11486 0.388
-0.12054 -0.11486 0.388
-0.12118 -0.11486 0.388
-0.12181 -0.11486 0.388
-0.12244 -0.11486 0.388
-0.12307 -0.11486 0.388
-0.1237 -0.11486 0.388
-0.12434 -0.11486 0.388
-0.12497 -0.11486 0.388
-0.1256 -0.11486 0.388
-0.12623 -0.11486 0.388
-0.12719 -0.11516 0.389
-0.12783 -0.11516 0.389
-0.12846 -0.11516 0.389
-0.12943 -0.11546 0.39
-0.13006 -0.11546 0.39
-0.1307 -0.11546 0.39
-0.13133 -0.11546 0.39
-0.13197 -0.11546 0.39
-0.13295 -0.11575 0.391
-0.13358 -0.11575 0.391
-0.13422 -0.11575 0.391
-0.13486 -0.11575 0.391
-0.13549 -0.11575 0.391
-0.13613 -0.11575 0.391
-0.13677 -0.11575 0.391
-0.13741 -0.11575 0.391
-0.13804 -0.11575 0.391
-0.13868 -0.11575 0.391
-0.13932 -0.11575 0.391
-0.1396 -0.11546 0.39
-0.14023 -0.11546 0.39
-0.14087 -0.11546 0.39
-0.14114 -0.11516 0.389
-0.14177 -0.11516 0.389
-0.14241 -0.11516 0.389
-0.14304 -0.11516 0.389
-0.14368 -0.11516 0.389
-0.14394 -0.11486 0.388
-0.14457 -0.11486 0.388
-0.1452 -0.11486 0.388
-0.14584 -0.11486 0.388
-0.14647 -0.11486 0.388
-0.14672 -0.11457 0.387
-0.14735 -0.11457 0.387
-0.14798 -0.11457 0.387
-0.14861 -0.11457 0.387
-0.14886 -0.11427 0.386
-0.14949 -0.11427 0.386
-0.15012 -0.11427 0.386
-0.15075 -0.11427 0.386
-0.15138 -0.11427 0.386
-0.152 -0.11427 0.386
-0.15263 -0.11427 0.386
-0.15326 -0.11427 0.386
-0.15389 -0.11427 0.386
-0.15452 -0.11427 0.386
-0.15515 -0.11427 0.386
-0.15538 -0.11397 0.385
-0.156 -0.11397 0.385
-0.15663 -0.11397 0.385
-0.15726 -0.11397 0.385
-0.15788 -0.11397 0.385
-0.15851 -0.11397 0.385
-0.15873 -0.11368 0.384
-0.15935 -0.11368 0.384
-0.15998 -0.11368 0.384
-0.16101 -0.11309 0.382
-0.16164 -0.11309 0.382
-0.16226 -0.11309 0.382
-0.094894 -0.12413 0.417
-0.094886 -0.12323 0.414
-0.095561 -0.12323 0.414
-0.096003 -0.12294 0.413
-0.096208 -0.12234 0.411
-0.096878 -0.12234 0.411
-0.09731 -0.12204 0.41
-0.0975 -0.12145 0.408
-0.098165 -0.12145 0.408
-0.098103 -0.12055 0.405
-0.09852 -0.12026 0.404
-0.099178 -0.12026 0.404
-0.099589 -0.11996 0.403
-0.099997 -0.11966 0.402
-0.10065 -0.11966 0.402
-0.10106 -0.11936 0.401
-0.10146 -0.11907 0.4
-0.10211 -0.11907 0.4
-0.1025 -0.11877 0.399
-0.10289 -0.11847 0.398
-0.10354 -0.11847 0.398
-0.10393 -0.11817 0.397
-0.10458 -0.11817 0.397
-0.10522 -0.11817 0.397
-0.1056 -0.11788 0.396
-0.10598 -0.11758 0.395
-0.10662 -0.11758 0.395
-0.107 -0.11728 0.394
-0.10737 -0.11698 0.393
-0.10801 -0.11698 0.393
-0.10865 -0.11698 0.393
-0.10901 -0.11668 0.392
-0.10965 -0.11668 0.392
-0.11001 -0.11639 0.391
-0.11064 -0.11639 0.391
-0.11128 -0.11639 0.391
-0.11192 -0.11639 0.391
-0.11255 -0.11639 0.391
-0.1129 -0.11609 0.39
-0.11354 -0.11609 0.39
-0.11417 -0.11609 0.39
-0.11481 -0.11609 0.39
-0.11544 -0.11609 0.39
-0.11608 -0.11609 0.39
-0.11671 -0.11609 0.39
-0.11735 -0.11609 0.39
-0.11799 -0.11609 0.39
-0.11862 -0.11609 0.39
-0.11926 -0.11609 0.39
-0.11959 -0.11579 0.389
-0.12022 -0.11579 0.389
-0.12085 -0.11579 0.389
-0.12149 -0.11579 0.389
-0.12212 -0.11579 0.389
-0.12276 -0.11579 0.389
-0.12339 -0.11579 0.389
-0.12402 -0.11579 0.389
-0.12466 -0.11579 0.389
-0.12529 -0.11579 0.389
-0.12593 -0.11579 0.389
-0.12656 -0.11579 0.389
-0.12752 -0.11609 0.39
-0.12816 -0.11609 0.39
-0.12879 -0.11609 0.39
-0.12943 -0.11609 0.39
-0.13006 -0.11609 0.39
-0.1307 -0.11609 0.39
-0.13133 -0.11609 0.39
-0.13197 -0.11609 0.39
-0.13295 -0.11639 0.391
-0.13358 -0.11639 0.391
-0.13422 -0.11639 0.391
-0.13486 -0.11639 0.391
-0.13549 -0.11639 0.391
-0.13613 -0.11639 0.391
-0.13677 -0.11639 0.391
-0.13741 -0.11639 0.391
-0.13804 -0.11639 0.391
-0.13868 -0.11639 0.391
-0.13896 -0.11609 0.39
-0.1396 -0.11609 0.39
-0.14023 -0.11609 0.39
-0.14087 -0.11609 0.39
-0.14114 -0.11579 0.389
-0.14177 -0.11579 0.389
-0.14241 -0.11579 0.389
-0.14304 -0.11579 0.389
-0.14368 -0.11579 0.389
-0.14394 -0.1155 0.388
-0.14457 -0.1155 0.388
-0.1452 -0.1155 0.388
-0.14546 -0.1152 0.387
-0.14609 -0.1152 0.387
-0.14672 -0.1152 0.387
-0.14735 -0.1152 0.387
-0.14798 -0.1152 0.387
-0.14861 -0.1152 0.387
-0.14886 -0.1149 0.386
-0.14949 -0.1149 0.386
-0.15012 -0.1149 0.386
-0.15075 -0.1149 0.386
-0.15138 -0.1149 0.386
-0.152 -0.1149 0.386
-0.15263 -0.1149 0.386
-0.15326 -0.1149 0.386
-0.15389 -0.1149 0.386
-0.15452 -0.1149 0.386
-0.15515 -0.1149 0.386
-0.15538 -0.1146 0.385
-0.156 -0.1146 0.385
-0.15663 -0.1146 0.385
-0.15726 -0.1146 0.385
-0.15788 -0.1146 0.385
-0.15851 -0.1146 0.385
-0.15873 -0.1143 0.384
-0.15935 -0.1143 0.384
-0.15998 -0.1143 0.384
-0.16101 -0.11371 0.382
-0.16164 -0.11371 0.382
-0.16226 -0.11371 0.382
-0.094894 -0.12481 0.417
-0.094886 -0.12391 0.414
-0.095561 -0.12391 0.414
-0.096003 -0.12361 0.413
-0.096208 -0.12301 0.411
-0.096878 -0.12301 0.411
-0.09731 -0.12271 0.41
-0.0975 -0.12211 0.408
-0.098165 -0.12211 0.408
-0.098103 -0.12122 0.405
-0.09852 -0.12092 0.404
-0.099178 -0.12092 0.404
-0.099589 -0.12062 0.403
-0.099997 -0.12032 0.402
-0.10065 -0.12032 0.402
-0.10106 -0.12002 0.401
-0.10146 -0.11972 0.4
-0.10211 -0.11972 0.4
-0.1025 -0.11942 0.399
-0.10289 -0.11912 0.398
-0.10354 -0.11912 0.398
-0.10393 -0.11882 0.397
-0.10458 -0.11882 0.397
-0.10522 -0.11882 0.397
-0.1056 -0.11852 0.396
-0.10598 -0.11822 0.395
-0.10662 -0.11822 0.395
-0.107 -0.11792 0.394
-0.10737 -0.11762 0.393
-0.10801 -0.11762 0.393
-0.10865 -0.11762 0.393
-0.10901 -0.11732 0.392
-0.10965 -0.11732 0.392
-0.11001 -0.11703 0.391
-0.11064 -0.11703 0.391
-0.11128 -0.11703 0.391
-0.11192 -0.11703 0.391
-0.11255 -0.11703 0.391
-0.1129 -0.11672 0.39
-0.11354 -0.11672 0.39
-0.11417 -0.11672 0.39
-0.11481 -0.11672 0.39
-0.11544 -0.11672 0.39
-0.11608 -0.11672 0.39
-0.11671 -0.11672 0.39
-0.11735 -0.11672 0.39
-0.11799 -0.11672 0.39
-0.11862 -0.11672 0.39
-0.11926 -0.11672 0.39
-0.11959 -0.11643 0.389
-0.12022 -0.11643 0.389
-0.12085 -0.11643 0.389
-0.12149 -0.11643 0.389
-0.12212 -0.11643 0.389
-0.12276 -0.11643 0.389
-0.12339 -0.11643 0.389
-0.12402 -0.11643 0.389
-0.12466 -0.11643 0.389
-0.12529 -0.11643 0.389
-0.12593 -0.11643 0.389
-0.12656 -0.11643 0.389
-0.12752 -0.11672 0.39
-0.12816 -0.11672 0.39
-0.12879 -0.11672 0.39
-0.12943 -0.11672 0.39
-0.13006 -0.11672 0.39
-0.1307 -0.11672 0.39
-0.13133 -0.11672 0.39
-0.13197 -0.11672 0.39
-0.13295 -0.11703 0.391
-0.13358 -0.11703 0.391
-0.13422 -0.11703 0.391
-0.13486 -0.11703 0.391
-0.13549 -0.11703 0.391
-0.13613 -0.11703 0.391
-0.13642 -0.11672 0.39
-0.13705 -0.11672 0.39
-0.13769 -0.11672 0.39
-0.13833 -0.11672 0.39
-0.13896 -0.11672 0.39
-0.1396 -0.11672 0.39
-0.14023 -0.11672 0.39
-0.14087 -0.11672 0.39
-0.14114 -0.11643 0.389
-0.14177 -0.11643 0.389
-0.14241 -0.11643 0.389
-0.14304 -0.11643 0.389
-0.14368 -0.11643 0.389
-0.14394 -0.11613 0.388
-0.14457 -0.11613 0.388
-0.1452 -0.11613 0.388
-0.14546 -0.11583 0.387
-0.14609 -0.11583 0.387
-0.14672 -0.11583 0.387
-0.14735 -0.11583 0.387
-0.14798 -0.11583 0.387
-0.14861 -0.11583 0.387
-0.14886 -0.11553 0.386
-0.14949 -0.11553 0.386
-0.15012 -0.11553 0.386
-0.15075 -0.11553 0.386
-0.15138 -0.11553 0.386
-0.152 -0.11553 0.386
-0.15263 -0.11553 0.386
-0.15326 -0.11553 0.386
-0.15389 -0.11553 0.386
-0.15452 -0.11553 0.386
-0.15515 -0.11553 0.386
-0.15578 -0.11553 0.386
-0.15641 -0.11553 0.386
-0.15704 -0.11553 0.386
-0.15726 -0.11523 0.385
-0.15788 -0.11523 0.385
-0.15851 -0.11523 0.385
-0.095349 -0.12609 0.419
-0.095573 -0.12549 0.417
-0.096253 -0.12549 0.417
-0.0967 -0.12518 0.416
-0.09691 -0.12458 0.414
-0.097585 -0.12458 0.414
-0.098022 -0.12428 0.413
-0.097978 -0.12338 0.41
-0.098646 -0.12338 0.41
-0.098588 -0.12248 0.407
-0.099007 -0.12218 0.406
-0.099669 -0.12218 0.406
-0.10008 -0.12187 0.405
-0.1005 -0.12157 0.404
-0.10115 -0.12157 0.404
-0.10156 -0.12127 0.403
-0.10196 -0.12097 0.402
-0.10262 -0.12097 0.402
-0.10302 -0.12067 0.401
-0.10341 -0.12037 0.4
-0.10406 -0.12037 0.4
-0.10445 -0.12007 0.399
-0.10484 -0.11977 0.398
-0.10549 -0.11977 0.398
-0.10587 -0.11947 0.397
-0.10625 -0.11917 0.396
-0.1069 -0.11917 0.396
-0.10727 -0.11886 0.395
-0.10791 -0.11886 0.395
-0.10856 -0.11886 0.395
-0.10892 -0.11857 0.394
-0.10929 -0.11826 0.393
-0.10993 -0.11826 0.393
-0.11057 -0.11826 0.393
-0.11121 -0.11826 0.393
-0.11156 -0.11796 0.392
-0.1122 -0.11796 0.392
-0.11284 -0.11796 0.392
-0.11348 -0.11796 0.392
-0.11412 -0.11796 0.392
-0.11476 -0.11796 0.392
-0.1154 -0.11796 0.392
-0.11604 -0.11796 0.392
-0.11668 -0.11796 0.392
-0.11731 -0.11796 0.392
-0.11795 -0.11796 0.392
-0.11859 -0.11796 0.392
-0.11893 -0.11766 0.391
-0.11956 -0.11766 0.391
-0.1202 -0.11766 0.391
-0.12084 -0.11766 0.391
-0.12147 -0.11766 0.391
-0.12211 -0.11766 0.391
-0.12275 -0.11766 0.391
-0.12339 -0.11766 0.391
-0.12402 -0.11766 0.391
-0.12466 -0.11766 0.391
-0.12498 -0.11736 0.39
-0.12561 -0.11736 0.39
-0.12657 -0.11766 0.391
-0.12688 -0.11736 0.39
-0.12752 -0.11736 0.39
-0.12816 -0.11736 0.39
-0.12879 -0.11736 0.39
-0.12943 -0.11736 0.39
-0.1304 -0.11766 0.391
-0.13103 -0.11766 0.391
-0.13167 -0.11766 0.391
-0.13231 -0.11766 0.391
-0.13295 -0.11766 0.391
-0.13358 -0.11766 0.391
-0.13422 -0.11766 0.391
-0.13486 -0.11766 0.391
-0.13549 -0.11766 0.391
-0.13613 -0.11766 0.391
-0.13642 -0.11736 0.39
-0.13705 -0.11736 0.39
-0.13769 -0.11736 0.39
-0.13833 -0.11736 0.39
-0.13896 -0.11736 0.39
-0.1396 -0.11736 0.39
-0.14023 -0.11736 0.39
-0.14087 -0.11736 0.39
-0.14114 -0.11706 0.389
-0.14177 -0.11706 0.389
-0.14241 -0.11706 0.389
-0.14304 -0.11706 0.389
-0.14368 -0.11706 0.389
-0.14394 -0.11676 0.388
-0.14457 -0.11676 0.388
-0.1452 -0.11676 0.388
-0.14584 -0.11676 0.388
-0.14647 -0.11676 0.388
-0.14672 -0.11646 0.387
-0.14735 -0.11646 0.387
-0.14798 -0.11646 0.387
-0.14861 -0.11646 0.387
-0.14886 -0.11616 0.386
-0.14949 -0.11616 0.386
-0.15012 -0.11616 0.386
-0.15075 -0.11616 0.386
-0.15138 -0.11616 0.386
-0.152 -0.11616 0.386
-0.15263 -0.11616 0.386
-0.15326 -0.11616 0.386
-0.15389 -0.11616 0.386
-0.15452 -0.11616 0.386
-0.15515 -0.11616 0.386
-0.15578 -0.11616 0.386
-0.15641 -0.11616 0.386
-0.15704 -0.11616 0.386
-0.095577 -0.12707 0.42
-0.095803 -0.12647 0.418
-0.096484 -0.12647 0.418
-0.096933 -0.12616 0.417
-0.097378 -0.12586 0.416
-0.098056 -0.12586 0.416
-0.098259 -0.12526 0.414
-0.098456 -0.12465 0.412
-0.099128 -0.12465 0.412
-0.099315 -0.12405 0.41
-0.099495 -0.12344 0.408
-0.10016 -0.12344 0.408
-0.10058 -0.12314 0.407
-0.10099 -0.12284 0.406
-0.10165 -0.12284 0.406
-0.10206 -0.12254 0.405
-0.10247 -0.12223 0.404
-0.10313 -0.12223 0.404
-0.10353 -0.12193 0.403
-0.10393 -0.12163 0.402
-0.10458 -0.12163 0.402
-0.10498 -0.12132 0.401
-0.10537 -0.12102 0.4
-0.10602 -0.12102 0.4
-0.1064 -0.12072 0.399
-0.10679 -0.12042 0.398
-0.10743 -0.12042 0.398
-0.10781 -0.12011 0.397
-0.10819 -0.11981 0.396
-0.10883 -0.11981 0.396
-0.1092 -0.11951 0.395
-0.10984 -0.11951 0.395
-0.11049 -0.11951 0.395
-0.11085 -0.11921 0.394
-0.11149 -0.11921 0.394
-0.11213 -0.11921 0.394
-0.11278 -0.11921 0.394
-0.11342 -0.11921 0.394
-0.11377 -0.1189 0.393
-0.11441 -0.1189 0.393
-0.11505 -0.1189 0.393
-0.11569 -0.1189 0.393
-0.11633 -0.1189 0.393
-0.11697 -0.1189 0.393
-0.11761 -0.1189 0.393
-0.11825 -0.1189 0.393
-0.11889 -0.1189 0.393
-0.11954 -0.1189 0.393
-0.12018 -0.1189 0.393
-0.12082 -0.1189 0.393
-0.12084 -0.1183 0.391
-0.12147 -0.1183 0.391
-0.12211 -0.1183 0.391
-0.12275 -0.1183 0.391
-0.12339 -0.1183 0.391
-0.12402 -0.1183 0.391
-0.12466 -0.1183 0.391
-0.12498 -0.118 0.39
-0.12561 -0.118 0.39
-0.12657 -0.1183 0.391
-0.12688 -0.118 0.39
-0.12752 -0.118 0.39
-0.12816 -0.118 0.39
-0.12879 -0.118 0.39
-0.12943 -0.118 0.39
-0.1304 -0.1183 0.391
-0.13103 -0.1183 0.391
-0.13167 -0.1183 0.391
-0.13231 -0.1183 0.391
-0.13295 -0.1183 0.391
-0.13358 -0.1183 0.391
-0.13422 -0.1183 0.391
-0.13451 -0.118 0.39
-0.13515 -0.118 0.39
-0.13578 -0.118 0.39
-0.13642 -0.118 0.39
-0.13705 -0.118 0.39
-0.13769 -0.118 0.39
-0.13833 -0.118 0.39
-0.13896 -0.118 0.39
-0.1396 -0.118 0.39
-0.14023 -0.118 0.39
-0.14087 -0.118 0.39
-0.14114 -0.11769 0.389
-0.14177 -0.11769 0.389
-0.14241 -0.11769 0.389
-0.14304 -0.11769 0.389
-0.14368 -0.11769 0.389
-0.14394 -0.11739 0.388
-0.14457 -0.11739 0.388
-0.1452 -0.11739 0.388
-0.14584 -0.11739 0.388
-0.14647 -0.11739 0.388
-0.14672 -0.11709 0.387
-0.14735 -0.11709 0.387
-0.14798 -0.11709 0.387
-0.14861 -0.11709 0.387
-0.14886 -0.11679 0.386
-0.14949 -0.11679 0.386
-0.15012 -0.11679 0.386
-0.15075 -0.11679 0.386
-0.15138 -0.11679 0.386
-0.152 -0.11679 0.386
-0.15263 -0.11679 0.386
-0.15326 -0.11679 0.386
-0.15389 -0.11679 0.386
-0.15452 -0.11679 0.386
-0.15515 -0.11679 0.386
-0.15578 -0.11679 0.386
-0.15641 -0.11679 0.386
-0.15704 -0.11679 0.386
-0.095577 -0.12776 0.42
-0.095803 -0.12715 0.418
-0.096484 -0.12715 0.418
-0.096933 -0.12685 0.417
-0.097378 -0.12654 0.416
-0.098056 -0.12654 0.416
-0.098259 -0.12593 0.414
-0.098456 -0.12532 0.412
-0.099128 -0.12532 0.412
-0.099315 -0.12472 0.41
-0.099495 -0.12411 0.408
-0.10016 -0.12411 0.408
-0.10058 -0.1238 0.407
-0.10099 -0.1235 0.406
-0.10165 -0.1235 0.406
-0.10206 -0.12319 0.405
-0.10247 -0.12289 0.404
-0.10313 -0.12289 0.404
-0.10353 -0.12259 0.403
-0.10393 -0.12228 0.402
-0.10458 -0.12228 0.402
-0.10498 -0.12198 0.401
-0.10537 -0.12167 0.4
-0.10602 -0.12167 0.4
-0.1064 -0.12137 0.399
-0.10679 -0.12107 0.398
-0.10743 -0.12107 0.398
-0.10781 -0.12076 0.397
-0.10819 -0.12046 0.396
-0.10883 -0.12046 0.396
-0.1092 -0.12015 0.395
-0.10984 -0.12015 0.395
-0.11049 -0.12015 0.395
-0.11085 -0.11985 0.394
-0.11149 -0.11985 0.394
-0.11213 -0.11985 0.394
-0.11278 -0.11985 0.394
-0.11342 -0.11985 0.394
-0.11377 -0.11954 0.393
-0.11441 -0.11954 0.393
-0.11505 -0.11954 0.393
-0.11569 -0.11954 0.393
-0.11633 -0.11954 0.393
-0.11697 -0.11954 0.393
-0.11761 -0.11954 0.393
-0.11825 -0.11954 0.393
-0.11889 -0.11954 0.393
-0.11954 -0.11954 0.393
-0.12018 -0.11954 0.393
-0.12082 -0.11954 0.393
-0.12146 -0.11954 0.393
-0.1221 -0.11954 0.393
-0.12274 -0.11954 0.393
-0.12338 -0.11954 0.393
-0.12402 -0.11954 0.393
-0.12434 -0.11924 0.392
-0.12498 -0.11924 0.392
-0.12562 -0.11924 0.392
-0.12626 -0.11924 0.392
-0.1269 -0.11924 0.392
-0.12721 -0.11894 0.391
-0.12785 -0.11894 0.391
-0.12848 -0.11894 0.391
-0.12912 -0.11894 0.391
-0.12976 -0.11894 0.391
-0.1304 -0.11894 0.391
-0.13103 -0.11894 0.391
-0.13167 -0.11894 0.391
-0.13231 -0.11894 0.391
-0.13295 -0.11894 0.391
-0.13358 -0.11894 0.391
-0.13422 -0.11894 0.391
-0.13451 -0.11863 0.39
-0.13515 -0.11863 0.39
-0.13578 -0.11863 0.39
-0.13642 -0.11863 0.39
-0.13705 -0.11863 0.39
-0.13769 -0.11863 0.39
-0.13833 -0.11863 0.39
-0.13896 -0.11863 0.39
-0.1396 -0.11863 0.39
-0.14023 -0.11863 0.39
-0.14087 -0.11863 0.39
-0.14114 -0.11833 0.389
-0.14177 -0.11833 0.389
-0.14241 -0.11833 0.389
-0.14304 -0.11833 0.389
-0.14368 -0.11833 0.389
-0.14394 -0.11802 0.388
-0.14457 -0.11802 0.388
-0.1452 -0.11802 0.388
-0.14584 -0.11802 0.388
-0.14647 -0.11802 0.388
-0.14672 -0.11772 0.387
-0.14735 -0.11772 0.387
-0.14798 -0.11772 0.387
-0.14861 -0.11772 0.387
-0.14924 -0.11772 0.387
-0.14988 -0.11772 0.387
-0.15012 -0.11742 0.386
-0.15075 -0.11742 0.386
-0.15138 -0.11742 0.386
-0.152 -0.11742 0.386
-0.15263 -0.11742 0.386
-0.15326 -0.11742 0.386
-0.15389 -0.11742 0.386
-0.095804 -0.12875 0.421
-0.096261 -0.12844 0.42
-0.096945 -0.12844 0.42
-0.097165 -0.12783 0.418
-0.097612 -0.12752 0.417
-0.098292 -0.12752 0.417
-0.098734 -0.12722 0.416
-0.098934 -0.12661 0.414
-0.099609 -0.12661 0.414
-0.099799 -0.12599 0.412
-0.099983 -0.12538 0.41
-0.10065 -0.12538 0.41
-0.10107 -0.12508 0.409
-0.10149 -0.12477 0.408
-0.10215 -0.12477 0.408
-0.10257 -0.12447 0.407
-0.10298 -0.12416 0.406
-0.10364 -0.12416 0.406
-0.10404 -0.12385 0.405
-0.10444 -0.12355 0.404
-0.1051 -0.12355 0.404
-0.1055 -0.12324 0.403
-0.10589 -0.12294 0.402
-0.10655 -0.12294 0.402
-0.10667 -0.12233 0.4
-0.10705 -0.12202 0.399
-0.1077 -0.12202 0.399
-0.10808 -0.12171 0.398
-0.10873 -0.12171 0.398
-0.1091 -0.12141 0.397
-0.10948 -0.1211 0.396
-0.11012 -0.1211 0.396
-0.11049 -0.1208 0.395
-0.11113 -0.1208 0.395
-0.11177 -0.1208 0.395
-0.11242 -0.1208 0.395
-0.11306 -0.1208 0.395
-0.11371 -0.1208 0.395
-0.11435 -0.1208 0.395
-0.11499 -0.1208 0.395
-0.11564 -0.1208 0.395
-0.11628 -0.1208 0.395
-0.11692 -0.1208 0.395
-0.11757 -0.1208 0.395
-0.11821 -0.1208 0.395
-0.11886 -0.1208 0.395
-0.1195 -0.1208 0.395
-0.12014 -0.1208 0.395
-0.12079 -0.1208 0.395
-0.12143 -0.1208 0.395
-0.12207 -0.1208 0.395
-0.12272 -0.1208 0.395
-0.12336 -0.1208 0.395
-0.12401 -0.1208 0.395
-0.12433 -0.12049 0.394
-0.12498 -0.12049 0.394
-0.12562 -0.12049 0.394
-0.12594 -0.12019 0.393
-0.12658 -0.12019 0.393
-0.12722 -0.12019 0.393
-0.12786 -0.12019 0.393
-0.12817 -0.11988 0.392
-0.12881 -0.11988 0.392
-0.12945 -0.11988 0.392
-0.12976 -0.11957 0.391
-0.1304 -0.11957 0.391
-0.13103 -0.11957 0.391
-0.13167 -0.11957 0.391
-0.13231 -0.11957 0.391
-0.13295 -0.11957 0.391
-0.13358 -0.11957 0.391
-0.13422 -0.11957 0.391
-0.13451 -0.11927 0.39
-0.13515 -0.11927 0.39
-0.13578 -0.11927 0.39
-0.13642 -0.11927 0.39
-0.13705 -0.11927 0.39
-0.13769 -0.11927 0.39
-0.13833 -0.11927 0.39
-0.13896 -0.11927 0.39
-0.1396 -0.11927 0.39
-0.14023 -0.11927 0.39
-0.14087 -0.11927 0.39
-0.14114 -0.11896 0.389
-0.14177 -0.11896 0.389
