ply
format ascii 1.0
comment Created by Open3D
element vertex 2070
property double x
property double y
property double z
end_header
0.10822 0.072608 0.404
0.10756 0.072608 0.404
0.1069 0.072608 0.404
0.10624 0.072608 0.404
0.10558 0.072608 0.404
0.10493 0.072608 0.404
0.10401 0.072428 0.403
0.10335 0.072428 0.403
0.1027 0.072428 0.403
0.10204 0.072428 0.403
0.10138 0.072428 0.403
0.10073 0.072428 0.403
0.10007 0.072428 0.403
0.099166 0.072248 0.402
0.098511 0.072248 0.402
0.097856 0.072248 0.402
0.097201 0.072248 0.402
0.096546 0.072248 0.402
0.095891 0.072248 0.402
0.095236 0.072248 0.402
0.094816 0.072428 0.403
0.094159 0.072428 0.403
0.093502 0.072428 0.403
0.093076 0.072608 0.404
0.092417 0.072608 0.404
0.091759 0.072608 0.404
0.0911 0.072608 0.404
0.090442 0.072608 0.404
0.090006 0.072788 0.405
0.089346 0.072788 0.405
0.088905 0.072967 0.406
0.088243 0.072967 0.406
0.087582 0.072967 0.406
0.087134 0.073147 0.407
0.086471 0.073147 0.407
0.085807 0.073147 0.407
0.085144 0.073147 0.407
0.084481 0.073147 0.407
0.084023 0.073327 0.408
0.083359 0.073327 0.408
0.082694 0.073327 0.408
0.082029 0.073327 0.408
0.081364 0.073327 0.408
0.080897 0.073506 0.409
0.08023 0.073506 0.409
0.079563 0.073506 0.409
0.078897 0.073506 0.409
0.07823 0.073506 0.409
0.077753 0.073686 0.41
0.077085 0.073686 0.41
0.076417 0.073686 0.41
0.075934 0.073866 0.411
0.075447 0.074046 0.412
0.074776 0.074046 0.412
0.074284 0.074225 0.413
0.073611 0.074225 0.413
0.073291 0.074585 0.415
0.072965 0.074944 0.417
0.072285 0.074944 0.417
0.071946 0.076023 0.423
0.071257 0.076023 0.423
0.070568 0.076023 0.423
0.070374 0.076562 0.426
0.07017 0.077101 0.429
0.069471 0.077101 0.429
0.069093 0.07746 0.431
0.06839 0.07746 0.431
0.067845 0.07764 0.432
0.067141 0.07764 0.432
0.066437 0.07764 0.432
0.066037 0.077999 0.434
0.06533 0.077999 0.434
0.064771 0.078179 0.435
0.06421 0.078359 0.436
0.063499 0.078359 0.436
0.062933 0.078539 0.437
0.062221 0.078539 0.437
0.06179 0.078898 0.439
0.061074 0.078898 0.439
0.060359 0.078898 0.439
0.059779 0.079078 0.44
0.059062 0.079078 0.44
0.058478 0.079258 0.441
0.05789 0.079437 0.442
0.05717 0.079437 0.442
0.056577 0.079617 0.443
0.055981 0.079797 0.444
0.055258 0.079797 0.444
0.054657 0.079976 0.445
0.053932 0.079976 0.445
0.053206 0.079976 0.445
0.052481 0.079976 0.445
0.051756 0.079976 0.445
0.051145 0.080156 0.446
0.050419 0.080156 0.446
0.050249 0.081055 0.451
0.050831 0.083211 0.463
0.050077 0.083211 0.463
0.15563 0.070169 0.394
0.15498 0.070169 0.394
0.15434 0.070169 0.394
0.1537 0.070169 0.394
0.15306 0.070169 0.394
0.15241 0.070169 0.394
0.15177 0.070169 0.394
0.15113 0.070169 0.394
0.15049 0.070169 0.394
0.14985 0.070169 0.394
0.1492 0.070169 0.394
0.14856 0.070169 0.394
0.14792 0.070169 0.394
0.14728 0.070169 0.394
0.14663 0.070169 0.394
0.14636 0.070347 0.395
0.14572 0.070347 0.395
0.14508 0.070347 0.395
0.14443 0.070347 0.395
0.14379 0.070347 0.395
0.14314 0.070347 0.395
0.14286 0.070525 0.396
0.14222 0.070525 0.396
0.14157 0.070525 0.396
0.14093 0.070525 0.396
0.14028 0.070525 0.396
0.13999 0.070703 0.397
0.13934 0.070703 0.397
0.13869 0.070703 0.397
0.13805 0.070703 0.397
0.1374 0.070703 0.397
0.13675 0.070703 0.397
0.13611 0.070703 0.397
0.1358 0.070881 0.398
0.13515 0.070881 0.398
0.1345 0.070881 0.398
0.13385 0.070881 0.398
0.1332 0.070881 0.398
0.13256 0.070881 0.398
0.13224 0.071059 0.399
0.13159 0.071059 0.399
0.13094 0.071059 0.399
0.13029 0.071059 0.399
0.12964 0.071059 0.399
0.12899 0.071059 0.399
0.12866 0.071237 0.4
0.12801 0.071237 0.4
0.12736 0.071237 0.4
0.1267 0.071237 0.4
0.12605 0.071237 0.4
0.1254 0.071237 0.4
0.12475 0.071237 0.4
0.1241 0.071237 0.4
0.12375 0.071415 0.401
0.1231 0.071415 0.401
0.12245 0.071415 0.401
0.12179 0.071415 0.401
0.12114 0.071415 0.401
0.12079 0.071593 0.402
0.12013 0.071593 0.402
0.11948 0.071593 0.402
0.11882 0.071593 0.402
0.11846 0.071771 0.403
0.1178 0.071771 0.403
0.11715 0.071771 0.403
0.11678 0.07195 0.404
0.11612 0.07195 0.404
0.11546 0.07195 0.404
0.11509 0.072128 0.405
0.11443 0.072128 0.405
0.11377 0.072128 0.405
0.11311 0.072128 0.405
0.11245 0.072128 0.405
0.11179 0.072128 0.405
0.11113 0.072128 0.405
0.11047 0.072128 0.405
0.10981 0.072128 0.405
0.10915 0.072128 0.405
0.10849 0.072128 0.405
0.10783 0.072128 0.405
0.10717 0.072128 0.405
0.10651 0.072128 0.405
0.10585 0.072128 0.405
0.10493 0.07195 0.404
0.10427 0.07195 0.404
0.10361 0.07195 0.404
0.10295 0.07195 0.404
0.10229 0.07195 0.404
0.10138 0.071771 0.403
0.10073 0.071771 0.403
0.10007 0.071771 0.403
0.099413 0.071771 0.403
0.098756 0.071771 0.403
0.0981 0.071771 0.403
0.097443 0.071771 0.403
0.096786 0.071771 0.403
0.096129 0.071771 0.403
0.095472 0.071771 0.403
0.094816 0.071771 0.403
0.094159 0.071771 0.403
0.093502 0.071771 0.403
0.093076 0.07195 0.404
0.092417 0.07195 0.404
0.091759 0.07195 0.404
0.0911 0.07195 0.404
0.090442 0.07195 0.404
0.090006 0.072128 0.405
0.089346 0.072128 0.405
0.088905 0.072306 0.406
0.088243 0.072306 0.406
0.087582 0.072306 0.406
0.087134 0.072484 0.407
0.086471 0.072484 0.407
0.085807 0.072484 0.407
0.085144 0.072484 0.407
0.084481 0.072484 0.407
0.084023 0.072662 0.408
0.083359 0.072662 0.408
0.082694 0.072662 0.408
0.082029 0.072662 0.408
0.081364 0.072662 0.408
0.080897 0.07284 0.409
0.08023 0.07284 0.409
0.079563 0.07284 0.409
0.078897 0.07284 0.409
0.07823 0.07284 0.409
0.077753 0.073018 0.41
0.077085 0.073018 0.41
0.076417 0.073018 0.41
0.075934 0.073196 0.411
0.075447 0.073374 0.412
0.074776 0.073374 0.412
0.074284 0.073552 0.413
0.073611 0.073552 0.413
0.073291 0.073909 0.415
0.072965 0.074265 0.417
0.072285 0.074265 0.417
0.072464 0.075155 0.422
0.071776 0.075155 0.422
0.071257 0.075333 0.423
0.070568 0.075333 0.423
0.070374 0.075868 0.426
0.07017 0.076402 0.429
0.069471 0.076402 0.429
0.069093 0.076758 0.431
0.06839 0.076758 0.431
0.067845 0.076936 0.432
0.067452 0.077292 0.434
0.066744 0.077292 0.434
0.066189 0.07747 0.435
0.06548 0.07747 0.435
0.06492 0.077649 0.436
0.064357 0.077827 0.437
0.063645 0.077827 0.437
0.063077 0.078005 0.438
0.062363 0.078005 0.438
0.06179 0.078183 0.439
0.061074 0.078183 0.439
0.060359 0.078183 0.439
0.059779 0.078361 0.44
0.059062 0.078361 0.44
0.058478 0.078539 0.441
0.05789 0.078717 0.442
0.05717 0.078717 0.442
0.056577 0.078895 0.443
0.055981 0.079073 0.444
0.055258 0.079073 0.444
0.054657 0.079251 0.445
0.053932 0.079251 0.445
0.053206 0.079251 0.445
0.052599 0.079429 0.446
0.051872 0.079429 0.446
0.051436 0.081032 0.455
0.050695 0.081032 0.455
0.050831 0.082457 0.463
0.050077 0.082457 0.463
0.15563 0.069527 0.394
0.15498 0.069527 0.394
0.15434 0.069527 0.394
0.1537 0.069527 0.394
0.15306 0.069527 0.394
0.15241 0.069527 0.394
0.15177 0.069527 0.394
0.15113 0.069527 0.394
0.15049 0.069527 0.394
0.14985 0.069527 0.394
0.1492 0.069527 0.394
0.14856 0.069527 0.394
0.14792 0.069527 0.394
0.14728 0.069527 0.394
0.14663 0.069527 0.394
0.14636 0.069703 0.395
0.14572 0.069703 0.395
0.14508 0.069703 0.395
0.14443 0.069703 0.395
0.14379 0.069703 0.395
0.14314 0.069703 0.395
0.14286 0.06988 0.396
0.14222 0.06988 0.396
0.14157 0.06988 0.396
0.14093 0.06988 0.396
0.14028 0.06988 0.396
0.13999 0.070056 0.397
0.13934 0.070056 0.397
0.13869 0.070056 0.397
0.13805 0.070056 0.397
0.1374 0.070056 0.397
0.13675 0.070056 0.397
0.13611 0.070056 0.397
0.1358 0.070233 0.398
0.13515 0.070233 0.398
0.1345 0.070233 0.398
0.13385 0.070233 0.398
0.1332 0.070233 0.398
0.13256 0.070233 0.398
0.13224 0.070409 0.399
0.13159 0.070409 0.399
0.13094 0.070409 0.399
0.13029 0.070409 0.399
0.12964 0.070409 0.399
0.12931 0.070585 0.4
0.12866 0.070585 0.4
0.12801 0.070585 0.4
0.12736 0.070585 0.4
0.1267 0.070585 0.4
0.12605 0.070585 0.4
0.1254 0.070585 0.4
0.12475 0.070585 0.4
0.1241 0.070585 0.4
0.12375 0.070762 0.401
0.1231 0.070762 0.401
0.12245 0.070762 0.401
0.12179 0.070762 0.401
0.12114 0.070762 0.401
0.12079 0.070938 0.402
0.12013 0.070938 0.402
0.11948 0.070938 0.402
0.11882 0.070938 0.402
0.11846 0.071115 0.403
0.1178 0.071115 0.403
0.11715 0.071115 0.403
0.11678 0.071291 0.404
0.11612 0.071291 0.404
0.11546 0.071291 0.404
0.11509 0.071468 0.405
0.11443 0.071468 0.405
0.11377 0.071468 0.405
0.11311 0.071468 0.405
0.11245 0.071468 0.405
0.11179 0.071468 0.405
0.11113 0.071468 0.405
0.11047 0.071468 0.405
0.10981 0.071468 0.405
0.10915 0.071468 0.405
0.10849 0.071468 0.405
0.10783 0.071468 0.405
0.10717 0.071468 0.405
0.10651 0.071468 0.405
0.10585 0.071468 0.405
0.10493 0.071291 0.404
0.10427 0.071291 0.404
0.10361 0.071291 0.404
0.10295 0.071291 0.404
0.10229 0.071291 0.404
0.10138 0.071115 0.403
0.10073 0.071115 0.403
0.10007 0.071115 0.403
0.099413 0.071115 0.403
0.098756 0.071115 0.403
0.0981 0.071115 0.403
0.097443 0.071115 0.403
0.096786 0.071115 0.403
0.096129 0.071115 0.403
0.095472 0.071115 0.403
0.094816 0.071115 0.403
0.094159 0.071115 0.403
0.093734 0.071291 0.404
0.093076 0.071291 0.404
0.092417 0.071291 0.404
0.091986 0.071468 0.405
0.091326 0.071468 0.405
0.090666 0.071468 0.405
0.090228 0.071644 0.406
0.089567 0.071644 0.406
0.088905 0.071644 0.406
0.088461 0.071821 0.407
0.087797 0.071821 0.407
0.087134 0.071821 0.407
0.086471 0.071821 0.407
0.085807 0.071821 0.407
0.085353 0.071997 0.408
0.084688 0.071997 0.408
0.084023 0.071997 0.408
0.083359 0.071997 0.408
0.082896 0.072174 0.409
0.08223 0.072174 0.409
0.081563 0.072174 0.409
0.081094 0.07235 0.41
0.080426 0.07235 0.41
0.079758 0.07235 0.41
0.07909 0.07235 0.41
0.078422 0.07235 0.41
0.077943 0.072527 0.411
0.077273 0.072527 0.411
0.076604 0.072527 0.411
0.076118 0.072703 0.412
0.07563 0.07288 0.413
0.074957 0.07288 0.413
0.074464 0.073056 0.414
0.073789 0.073056 0.414
0.073468 0.073409 0.416
0.073152 0.074468 0.422
0.072464 0.074468 0.422
0.071776 0.074468 0.422
0.071426 0.074821 0.424
0.070735 0.074821 0.424
0.070539 0.07535 0.427
0.070334 0.075879 0.43
0.069633 0.075879 0.43
0.069253 0.076232 0.432
0.068549 0.076232 0.432
0.068159 0.076585 0.434
0.067607 0.076762 0.435
0.066898 0.076762 0.435
0.066189 0.076762 0.435
0.06548 0.076762 0.435
0.06492 0.076938 0.436
0.064357 0.077115 0.437
0.063645 0.077115 0.437
0.063077 0.077291 0.438
0.062363 0.077291 0.438
0.06179 0.077468 0.439
0.061074 0.077468 0.439
0.060359 0.077468 0.439
0.059779 0.077644 0.44
0.059197 0.07782 0.441
0.058478 0.07782 0.441
0.05789 0.077997 0.442
0.05717 0.077997 0.442
0.056577 0.078173 0.443
0.055981 0.07835 0.444
0.055258 0.07835 0.444
0.054657 0.078526 0.445
0.053932 0.078526 0.445
0.053446 0.078879 0.447
0.052717 0.078879 0.447
0.051989 0.078879 0.447
0.15563 0.068885 0.394
0.15498 0.068885 0.394
0.15434 0.068885 0.394
0.1537 0.068885 0.394
0.15306 0.068885 0.394
0.15241 0.068885 0.394
0.15177 0.068885 0.394
0.15113 0.068885 0.394
0.15049 0.068885 0.394
0.14985 0.068885 0.394
0.1492 0.068885 0.394
0.14856 0.068885 0.394
0.14792 0.068885 0.394
0.14728 0.068885 0.394
0.14663 0.068885 0.394
0.14636 0.06906 0.395
0.14572 0.06906 0.395
0.14508 0.06906 0.395
0.14443 0.06906 0.395
0.14379 0.06906 0.395
0.14314 0.06906 0.395
0.14286 0.069234 0.396
0.14222 0.069234 0.396
0.14157 0.069234 0.396
0.14093 0.069234 0.396
0.14028 0.069234 0.396
0.13999 0.069409 0.397
0.13934 0.069409 0.397
0.13869 0.069409 0.397
0.13805 0.069409 0.397
0.1374 0.069409 0.397
0.13675 0.069409 0.397
0.13611 0.069409 0.397
0.1358 0.069584 0.398
0.13515 0.069584 0.398
0.1345 0.069584 0.398
0.13385 0.069584 0.398
0.1332 0.069584 0.398
0.13256 0.069584 0.398
0.13224 0.069759 0.399
0.13159 0.069759 0.399
0.13094 0.069759 0.399
0.13029 0.069759 0.399
0.12964 0.069759 0.399
0.12931 0.069934 0.4
0.12866 0.069934 0.4
0.12801 0.069934 0.4
0.12736 0.069934 0.4
0.1267 0.069934 0.4
0.12605 0.069934 0.4
0.12571 0.070109 0.401
0.12506 0.070109 0.401
0.12441 0.070109 0.401
0.12375 0.070109 0.401
0.1231 0.070109 0.401
0.12275 0.070283 0.402
0.1221 0.070283 0.402
0.12144 0.070283 0.402
0.12109 0.070458 0.403
0.12043 0.070458 0.403
0.11977 0.070458 0.403
0.11912 0.070458 0.403
0.11875 0.070633 0.404
0.1181 0.070633 0.404
0.11744 0.070633 0.404
0.11707 0.070808 0.405
0.11641 0.070808 0.405
0.11575 0.070808 0.405
0.11537 0.070983 0.406
0.11471 0.070983 0.406
0.11405 0.070983 0.406
0.11339 0.070983 0.406
0.11273 0.070983 0.406
0.11206 0.070983 0.406
0.1114 0.070983 0.406
0.11074 0.070983 0.406
0.11008 0.070983 0.406
0.10942 0.070983 0.406
0.10876 0.070983 0.406
0.10809 0.070983 0.406
0.10743 0.070983 0.406
0.10651 0.070808 0.405
0.10585 0.070808 0.405
0.10519 0.070808 0.405
0.10453 0.070808 0.405
0.10387 0.070808 0.405
0.10295 0.070633 0.404
0.10229 0.070633 0.404
0.10164 0.070633 0.404
0.10098 0.070633 0.404
0.10032 0.070633 0.404
0.09966 0.070633 0.404
0.099001 0.070633 0.404
0.098343 0.070633 0.404
0.097685 0.070633 0.404
0.097026 0.070633 0.404
0.096368 0.070633 0.404
0.095709 0.070633 0.404
0.095051 0.070633 0.404
0.094393 0.070633 0.404
0.093734 0.070633 0.404
0.093306 0.070808 0.405
0.092646 0.070808 0.405
0.092213 0.070983 0.406
0.091551 0.070983 0.406
0.09089 0.070983 0.406
0.090228 0.070983 0.406
0.089567 0.070983 0.406
0.089124 0.071158 0.407
0.088461 0.071158 0.407
0.087797 0.071158 0.407
0.087348 0.071332 0.408
0.086683 0.071332 0.408
0.086018 0.071332 0.408
0.085562 0.071507 0.409
0.084896 0.071507 0.409
0.084229 0.071507 0.409
0.083563 0.071507 0.409
0.083099 0.071682 0.41
0.082431 0.071682 0.41
0.081763 0.071682 0.41
0.081094 0.071682 0.41
0.080622 0.071857 0.411
0.079953 0.071857 0.411
0.079283 0.071857 0.411
0.078613 0.071857 0.411
0.078133 0.072032 0.412
0.077649 0.072207 0.413
0.076976 0.072207 0.413
0.076303 0.072207 0.413
0.07563 0.072207 0.413
0.075139 0.072381 0.414
0.074824 0.072731 0.416
0.074146 0.072731 0.416
0.073468 0.072731 0.416
0.07314 0.073081 0.418
0.072978 0.073605 0.421
0.072464 0.07378 0.422
0.071776 0.07378 0.422
0.071426 0.07413 0.424
0.070735 0.07413 0.424
0.070539 0.074654 0.427
0.070334 0.075179 0.43
0.069633 0.075179 0.43
0.069253 0.075528 0.432
0.068549 0.075528 0.432
0.068159 0.075878 0.434
0.067607 0.076053 0.435
0.066898 0.076053 0.435
0.066189 0.076053 0.435
0.06548 0.076053 0.435
0.06492 0.076228 0.436
0.064357 0.076403 0.437
0.063645 0.076403 0.437
0.063077 0.076577 0.438
0.062363 0.076577 0.438
0.06179 0.076752 0.439
0.061074 0.076752 0.439
0.060359 0.076752 0.439
0.059779 0.076927 0.44
0.059197 0.077102 0.441
0.058478 0.077102 0.441
0.05789 0.077277 0.442
0.05717 0.077277 0.442
0.056577 0.077452 0.443
0.055981 0.077626 0.444
0.055258 0.077626 0.444
0.054657 0.077801 0.445
0.053932 0.077801 0.445
0.053446 0.078151 0.447
0.052717 0.078151 0.447
0.051989 0.078151 0.447
0.15563 0.068243 0.394
0.15498 0.068243 0.394
0.15434 0.068243 0.394
0.1537 0.068243 0.394
0.15306 0.068243 0.394
0.15241 0.068243 0.394
0.15177 0.068243 0.394
0.15113 0.068243 0.394
0.15049 0.068243 0.394
0.14985 0.068243 0.394
0.1492 0.068243 0.394
0.14856 0.068243 0.394
0.14792 0.068243 0.394
0.14728 0.068243 0.394
0.14663 0.068243 0.394
0.14636 0.068416 0.395
0.14572 0.068416 0.395
0.14508 0.068416 0.395
0.14443 0.068416 0.395
0.14379 0.068416 0.395
0.14314 0.068416 0.395
0.14286 0.068589 0.396
0.14222 0.068589 0.396
0.14157 0.068589 0.396
0.14093 0.068589 0.396
0.14028 0.068589 0.396
0.13964 0.068589 0.396
0.13899 0.068589 0.396
0.13869 0.068762 0.397
0.13805 0.068762 0.397
0.1374 0.068762 0.397
0.13675 0.068762 0.397
0.13611 0.068762 0.397
0.1358 0.068936 0.398
0.13515 0.068936 0.398
0.1345 0.068936 0.398
0.13385 0.068936 0.398
0.13354 0.069109 0.399
0.13289 0.069109 0.399
0.13224 0.069109 0.399
0.13159 0.069109 0.399
0.13094 0.069109 0.399
0.13062 0.069282 0.4
0.12996 0.069282 0.4
0.12931 0.069282 0.4
0.12866 0.069282 0.4
0.12801 0.069282 0.4
0.12767 0.069455 0.401
0.12702 0.069455 0.401
0.12637 0.069455 0.401
0.12603 0.069628 0.402
0.12537 0.069628 0.402
0.12472 0.069628 0.402
0.12406 0.069628 0.402
0.12341 0.069628 0.402
0.12306 0.069802 0.403
0.1224 0.069802 0.403
0.12205 0.069975 0.404
0.12139 0.069975 0.404
0.12073 0.069975 0.404
0.12037 0.070148 0.405
0.11971 0.070148 0.405
0.11905 0.070148 0.405
0.11868 0.070321 0.406
0.11802 0.070321 0.406
0.11736 0.070321 0.406
0.11698 0.070494 0.407
0.11632 0.070494 0.407
0.11566 0.070494 0.407
0.11499 0.070494 0.407
0.11433 0.070494 0.407
0.11367 0.070494 0.407
0.113 0.070494 0.407
0.11234 0.070494 0.407
0.11168 0.070494 0.407
0.11101 0.070494 0.407
0.11035 0.070494 0.407
0.10969 0.070494 0.407
0.10876 0.070321 0.406
0.10809 0.070321 0.406
0.10743 0.070321 0.406
0.10677 0.070321 0.406
0.10611 0.070321 0.406
0.10519 0.070148 0.405
0.10453 0.070148 0.405
0.10387 0.070148 0.405
0.10295 0.069975 0.404
0.10229 0.069975 0.404
0.10164 0.069975 0.404
0.10098 0.069975 0.404
0.10032 0.069975 0.404
0.09966 0.069975 0.404
0.099001 0.069975 0.404
0.098343 0.069975 0.404
0.097685 0.069975 0.404
0.097026 0.069975 0.404
0.096368 0.069975 0.404
0.095709 0.069975 0.404
0.095051 0.069975 0.404
0.094393 0.069975 0.404
0.093734 0.069975 0.404
0.093306 0.070148 0.405
0.092646 0.070148 0.405
0.092213 0.070321 0.406
0.091551 0.070321 0.406
0.09089 0.070321 0.406
0.090228 0.070321 0.406
0.089567 0.070321 0.406
0.089124 0.070494 0.407
0.088461 0.070494 0.407
0.087797 0.070494 0.407
0.087348 0.070668 0.408
0.086683 0.070668 0.408
0.086018 0.070668 0.408
0.085562 0.070841 0.409
0.084896 0.070841 0.409
0.084229 0.070841 0.409
0.083563 0.070841 0.409
0.083099 0.071014 0.41
0.082431 0.071014 0.41
0.081763 0.071014 0.41
0.081094 0.071014 0.41
0.080622 0.071187 0.411
0.079953 0.071187 0.411
0.079283 0.071187 0.411
0.078613 0.071187 0.411
0.078133 0.07136 0.412
0.077649 0.071534 0.413
0.076976 0.071534 0.413
0.076303 0.071534 0.413
0.07563 0.071534 0.413
0.075139 0.071707 0.414
0.074824 0.072053 0.416
0.074146 0.072053 0.416
0.073821 0.0724 0.418
0.07314 0.0724 0.418
0.072978 0.072919 0.421
0.072636 0.073266 0.423
0.071946 0.073266 0.423
0.071762 0.073785 0.426
0.071068 0.073785 0.426
0.07087 0.074305 0.429
0.070498 0.074651 0.431
0.069795 0.074651 0.431
0.069413 0.074998 0.433
0.068708 0.074998 0.433
0.068159 0.075171 0.434
0.067607 0.075344 0.435
0.066898 0.075344 0.435
0.066189 0.075344 0.435
0.06548 0.075344 0.435
0.06492 0.075517 0.436
0.064357 0.075691 0.437
0.063645 0.075691 0.437
0.062933 0.075691 0.437
0.062221 0.075691 0.437
0.061649 0.075864 0.438
0.061074 0.076037 0.439
0.060359 0.076037 0.439
0.059644 0.076037 0.439
0.059197 0.076383 0.441
0.058478 0.076383 0.441
0.057759 0.076383 0.441
0.05704 0.076383 0.441
0.056449 0.076557 0.442
0.055981 0.076903 0.444
0.055258 0.076903 0.444
0.15563 0.067601 0.394
0.15498 0.067601 0.394
0.15434 0.067601 0.394
0.1537 0.067601 0.394
0.15306 0.067601 0.394
0.15241 0.067601 0.394
0.15177 0.067601 0.394
0.15113 0.067601 0.394
0.15049 0.067601 0.394
0.14985 0.067601 0.394
0.1492 0.067601 0.394
0.14856 0.067601 0.394
0.14792 0.067601 0.394
0.14765 0.067772 0.395
0.14701 0.067772 0.395
0.14636 0.067772 0.395
0.14572 0.067772 0.395
0.14508 0.067772 0.395
0.14443 0.067772 0.395
0.14379 0.067772 0.395
0.14314 0.067772 0.395
0.14286 0.067944 0.396
0.14222 0.067944 0.396
0.14157 0.067944 0.396
0.14093 0.067944 0.396
0.14028 0.067944 0.396
0.13964 0.067944 0.396
0.13899 0.067944 0.396
0.13869 0.068116 0.397
0.13805 0.068116 0.397
0.1374 0.068116 0.397
0.13675 0.068116 0.397
0.13611 0.068116 0.397
0.1358 0.068287 0.398
0.13515 0.068287 0.398
0.1345 0.068287 0.398
0.13385 0.068287 0.398
0.13354 0.068459 0.399
0.13289 0.068459 0.399
0.13224 0.068459 0.399
0.13159 0.068459 0.399
0.13094 0.068459 0.399
0.13062 0.06863 0.4
0.12996 0.06863 0.4
0.12931 0.06863 0.4
0.12866 0.06863 0.4
0.12801 0.06863 0.4
0.12767 0.068802 0.401
0.12702 0.068802 0.401
0.12637 0.068802 0.401
0.12603 0.068973 0.402
0.12537 0.068973 0.402
0.12472 0.068973 0.402
0.12406 0.068973 0.402
0.12341 0.068973 0.402
0.12306 0.069145 0.403
0.1224 0.069145 0.403
0.12205 0.069317 0.404
0.12139 0.069317 0.404
0.12073 0.069317 0.404
0.12037 0.069488 0.405
0.11971 0.069488 0.405
0.11905 0.069488 0.405
0.11868 0.06966 0.406
0.11802 0.06966 0.406
0.11736 0.06966 0.406
0.11698 0.069831 0.407
0.11632 0.069831 0.407
0.11566 0.069831 0.407
0.11499 0.069831 0.407
0.11433 0.069831 0.407
0.11367 0.069831 0.407
0.113 0.069831 0.407
0.11234 0.069831 0.407
0.11168 0.069831 0.407
0.11101 0.069831 0.407
0.11035 0.069831 0.407
0.10969 0.069831 0.407
0.10876 0.06966 0.406
0.10809 0.06966 0.406
0.10743 0.06966 0.406
0.10677 0.06966 0.406
0.10611 0.06966 0.406
0.10545 0.06966 0.406
0.10479 0.06966 0.406
0.10412 0.06966 0.406
0.10346 0.06966 0.406
0.1028 0.06966 0.406
0.10189 0.069488 0.405
0.10123 0.069488 0.405
0.10057 0.069488 0.405
0.099906 0.069488 0.405
0.099246 0.069488 0.405
0.098586 0.069488 0.405
0.097926 0.069488 0.405
0.097266 0.069488 0.405
0.096606 0.069488 0.405
0.095946 0.069488 0.405
0.095286 0.069488 0.405
0.094626 0.069488 0.405
0.094198 0.06966 0.406
0.093536 0.06966 0.406
0.092875 0.06966 0.406
0.092213 0.06966 0.406
0.091551 0.06966 0.406
0.091114 0.069831 0.407
0.09045 0.069831 0.407
0.089787 0.069831 0.407
0.089124 0.069831 0.407
0.088461 0.069831 0.407
0.088013 0.070003 0.408
0.087348 0.070003 0.408
0.086683 0.070003 0.408
0.086229 0.070174 0.409
0.085562 0.070174 0.409
0.084896 0.070174 0.409
0.084435 0.070346 0.41
0.083767 0.070346 0.41
0.083099 0.070346 0.41
0.082632 0.070518 0.411
0.081962 0.070518 0.411
0.081292 0.070518 0.411
0.080819 0.070689 0.412
0.080147 0.070689 0.412
0.079476 0.070689 0.412
0.078804 0.070689 0.412
0.078322 0.070861 0.413
0.077837 0.071032 0.414
0.077163 0.071032 0.414
0.076673 0.071204 0.415
0.075996 0.071204 0.415
0.075502 0.071376 0.416
0.075183 0.071719 0.418
0.074502 0.071719 0.418
0.074174 0.072062 0.42
0.07349 0.072062 0.42
0.073152 0.072405 0.422
0.072808 0.072748 0.424
0.072117 0.072748 0.424
0.071931 0.073263 0.427
0.071235 0.073263 0.427
0.07087 0.073606 0.429
0.070498 0.073949 0.431
0.069795 0.073949 0.431
0.069413 0.074292 0.433
0.068708 0.074292 0.433
0.068159 0.074464 0.434
0.067607 0.074635 0.435
0.066898 0.074635 0.435
0.066189 0.074635 0.435
0.06548 0.074635 0.435
0.06492 0.074807 0.436
0.064357 0.074979 0.437
0.063645 0.074979 0.437
0.062933 0.074979 0.437
0.062221 0.074979 0.437
0.061649 0.07515 0.438
0.061074 0.075322 0.439
0.060359 0.075322 0.439
0.059644 0.075322 0.439
0.059197 0.075665 0.441
0.058478 0.075665 0.441
0.057759 0.075665 0.441
0.05704 0.075665 0.441
0.056449 0.075836 0.442
0.15563 0.066959 0.394
0.15498 0.066959 0.394
0.15434 0.066959 0.394
0.1537 0.066959 0.394
0.15306 0.066959 0.394
0.15241 0.066959 0.394
0.15177 0.066959 0.394
0.15113 0.066959 0.394
0.15049 0.066959 0.394
0.14985 0.066959 0.394
0.1492 0.066959 0.394
0.14856 0.066959 0.394
0.14792 0.066959 0.394
0.14765 0.067129 0.395
0.14701 0.067129 0.395
0.14636 0.067129 0.395
0.14572 0.067129 0.395
0.14508 0.067129 0.395
0.14443 0.067129 0.395
0.14379 0.067129 0.395
0.14314 0.067129 0.395
0.14286 0.067299 0.396
0.14222 0.067299 0.396
0.14157 0.067299 0.396
0.14093 0.067299 0.396
0.14028 0.067299 0.396
0.13964 0.067299 0.396
0.13899 0.067299 0.396
0.13869 0.067469 0.397
0.13805 0.067469 0.397
0.1374 0.067469 0.397
0.13675 0.067469 0.397
0.13611 0.067469 0.397
0.1358 0.067639 0.398
0.13515 0.067639 0.398
0.1345 0.067639 0.398
0.13385 0.067639 0.398
0.13354 0.067809 0.399
0.13289 0.067809 0.399
0.13224 0.067809 0.399
0.13159 0.067809 0.399
0.13127 0.067979 0.4
0.13062 0.067979 0.4
0.12996 0.067979 0.4
0.12964 0.068149 0.401
0.12898 0.068149 0.401
0.12833 0.068149 0.401
0.12767 0.068149 0.401
0.12702 0.068149 0.401
0.12668 0.068318 0.402
0.12603 0.068318 0.402
0.12537 0.068318 0.402
0.12503 0.068488 0.403
0.12437 0.068488 0.403
0.12402 0.068658 0.404
0.12336 0.068658 0.404
0.1227 0.068658 0.404
0.12235 0.068828 0.405
0.12199 0.068998 0.406
0.12133 0.068998 0.406
0.12066 0.068998 0.406
0.12 0.068998 0.406
0.11964 0.069168 0.407
0.11897 0.069168 0.407
0.11831 0.069168 0.407
0.11793 0.069338 0.408
0.11727 0.069338 0.408
0.11661 0.069338 0.408
0.11594 0.069338 0.408
0.11528 0.069338 0.408
0.11461 0.069338 0.408
0.11395 0.069338 0.408
0.11328 0.069338 0.408
0.11262 0.069338 0.408
0.11195 0.069338 0.408
0.11128 0.069338 0.408
0.11062 0.069338 0.408
0.10969 0.069168 0.407
0.10902 0.069168 0.407
0.10836 0.069168 0.407
0.1077 0.069168 0.407
0.10703 0.069168 0.407
0.10637 0.069168 0.407
0.10571 0.069168 0.407
0.10504 0.069168 0.407
0.10438 0.069168 0.407
0.10372 0.069168 0.407
0.10305 0.069168 0.407
0.10214 0.068998 0.406
0.10148 0.068998 0.406
0.10082 0.068998 0.406
0.10015 0.068998 0.406
0.099491 0.068998 0.406
0.09883 0.068998 0.406
0.098168 0.068998 0.406
0.097506 0.068998 0.406
0.096845 0.068998 0.406
0.096183 0.068998 0.406
0.095521 0.068998 0.406
0.09486 0.068998 0.406
0.09443 0.069168 0.407
0.093767 0.069168 0.407
0.093104 0.069168 0.407
0.09244 0.069168 0.407
0.091777 0.069168 0.407
0.091338 0.069338 0.408
0.090673 0.069338 0.408
0.090008 0.069338 0.408
0.089343 0.069338 0.408
0.088678 0.069338 0.408
0.088229 0.069508 0.409
0.087562 0.069508 0.409
0.086896 0.069508 0.409
0.08644 0.069678 0.41
0.085772 0.069678 0.41
0.085103 0.069678 0.41
0.084641 0.069848 0.411
0.083767 0.069678 0.41
0.083099 0.069678 0.41
0.082632 0.069848 0.411
0.081962 0.069848 0.411
0.081292 0.069848 0.411
0.080819 0.070018 0.412
0.080147 0.070018 0.412
0.079476 0.070018 0.412
0.078804 0.070018 0.412
0.078322 0.070188 0.413
0.077837 0.070358 0.414
0.077163 0.070358 0.414
0.076673 0.070528 0.415
0.075996 0.070528 0.415
0.075502 0.070698 0.416
0.075183 0.071038 0.418
0.074502 0.071038 0.418
0.074174 0.071378 0.42
0.07349 0.071378 0.42
0.073152 0.071717 0.422
0.072808 0.072057 0.424
0.072117 0.072057 0.424
0.071931 0.072567 0.427
0.071235 0.072567 0.427
0.07087 0.072907 0.429
0.070498 0.073247 0.431
0.069795 0.073247 0.431
0.069253 0.073417 0.432
0.068549 0.073417 0.432
0.068002 0.073587 0.433
0.067452 0.073757 0.434
0.066744 0.073757 0.434
0.066189 0.073927 0.435
0.06548 0.073927 0.435
0.06492 0.074097 0.436
0.06421 0.074097 0.436
0.063499 0.074097 0.436
0.062933 0.074267 0.437
0.062221 0.074267 0.437
0.061649 0.074437 0.438
0.061074 0.074606 0.439
0.060359 0.074606 0.439
0.059644 0.074606 0.439
0.059062 0.074776 0.44
0.058345 0.074776 0.44
0.057759 0.074946 0.441
0.05704 0.074946 0.441
0.056449 0.075116 0.442
0.15602 0.066485 0.395
0.15498 0.066317 0.394
0.15434 0.066317 0.394
0.1537 0.066317 0.394
0.15306 0.066317 0.394
0.15241 0.066317 0.394
0.15177 0.066317 0.394
0.15113 0.066317 0.394
0.15049 0.066317 0.394
0.14985 0.066317 0.394
0.1492 0.066317 0.394
0.14856 0.066317 0.394
0.1483 0.066485 0.395
0.14765 0.066485 0.395
0.14701 0.066485 0.395
0.14636 0.066485 0.395
0.14572 0.066485 0.395
0.14508 0.066485 0.395
0.14443 0.066485 0.395
0.14379 0.066485 0.395
0.14314 0.066485 0.395
0.14286 0.066654 0.396
0.14222 0.066654 0.396
0.14157 0.066654 0.396
0.14093 0.066654 0.396
0.14028 0.066654 0.396
0.13964 0.066654 0.396
0.13899 0.066654 0.396
0.13869 0.066822 0.397
0.13805 0.066822 0.397
0.1374 0.066822 0.397
0.13675 0.066822 0.397
0.13611 0.066822 0.397
0.1358 0.06699 0.398
0.13515 0.06699 0.398
0.1345 0.06699 0.398
0.13419 0.067159 0.399
0.13354 0.067159 0.399
0.13289 0.067159 0.399
0.13257 0.067327 0.4
0.13192 0.067327 0.4
0.13127 0.067327 0.4
0.13094 0.067495 0.401
0.13029 0.067495 0.401
0.12964 0.067495 0.401
0.1293 0.067663 0.402
0.12865 0.067663 0.402
0.12831 0.067832 0.403
0.12765 0.067832 0.403
0.127 0.067832 0.403
0.12665 0.068 0.404
0.126 0.068 0.404
0.12534 0.068 0.404
0.12468 0.068 0.404
0.12433 0.068168 0.405
0.12397 0.068337 0.406
0.12331 0.068337 0.406
0.12295 0.068505 0.407
0.12229 0.068505 0.407
0.12162 0.068505 0.407
0.12126 0.068673 0.408
0.12059 0.068673 0.408
0.11993 0.068673 0.408
0.11956 0.068842 0.409
0.11889 0.068842 0.409
0.11822 0.068842 0.409
0.11756 0.068842 0.409
0.11661 0.068673 0.408
0.11594 0.068673 0.408
0.11528 0.068673 0.408
0.11461 0.068673 0.408
0.11395 0.068673 0.408
0.11328 0.068673 0.408
0.11262 0.068673 0.408
0.11195 0.068673 0.408
0.11128 0.068673 0.408
0.11062 0.068673 0.408
0.10969 0.068505 0.407
0.10902 0.068505 0.407
0.10836 0.068505 0.407
0.1077 0.068505 0.407
0.10703 0.068505 0.407
0.10637 0.068505 0.407
0.10571 0.068505 0.407
0.10504 0.068505 0.407
0.10438 0.068505 0.407
0.10372 0.068505 0.407
0.10305 0.068505 0.407
0.10214 0.068337 0.406
0.10148 0.068337 0.406
0.10082 0.068337 0.406
0.10015 0.068337 0.406
0.099491 0.068337 0.406
0.09883 0.068337 0.406
0.098168 0.068337 0.406
0.097506 0.068337 0.406
0.096845 0.068337 0.406
0.096183 0.068337 0.406
0.095521 0.068337 0.406
0.09486 0.068337 0.406
0.09443 0.068505 0.407
0.093767 0.068505 0.407
0.093104 0.068505 0.407
0.09244 0.068505 0.407
0.091777 0.068505 0.407
0.091338 0.068673 0.408
0.090673 0.068673 0.408
0.090008 0.068673 0.408
0.089343 0.068673 0.408
0.088678 0.068673 0.408
0.088229 0.068842 0.409
0.087562 0.068842 0.409
0.086896 0.068842 0.409
0.08644 0.06901 0.41
0.085772 0.06901 0.41
0.085103 0.06901 0.41
0.084641 0.069178 0.411
0.083971 0.069178 0.411
0.083302 0.069178 0.411
0.082833 0.069347 0.412
0.082161 0.069347 0.412
0.081688 0.069515 0.413
0.081015 0.069515 0.413
0.080342 0.069515 0.413
0.079861 0.069683 0.414
0.079187 0.069683 0.414
0.078512 0.069683 0.414
0.078025 0.069852 0.415
0.077349 0.069852 0.415
0.076857 0.07002 0.416
0.07618 0.07002 0.416
0.075865 0.070357 0.418
0.075363 0.070525 0.419
0.07468 0.070525 0.419
0.074351 0.070862 0.421
0.073665 0.070862 0.421
0.073325 0.071198 0.423
0.072979 0.071535 0.425
0.072287 0.071535 0.425
0.071931 0.071871 0.427
0.071235 0.071871 0.427
0.07087 0.072208 0.429
0.070334 0.072376 0.43
0.069633 0.072376 0.43
0.069093 0.072545 0.431
0.06839 0.072545 0.431
0.067845 0.072713 0.432
0.067452 0.07305 0.434
0.066744 0.07305 0.434
0.066189 0.073218 0.435
0.06548 0.073218 0.435
0.064771 0.073218 0.435
0.06421 0.073386 0.436
0.063499 0.073386 0.436
0.062933 0.073555 0.437
0.062221 0.073555 0.437
0.061649 0.073723 0.438
0.061074 0.073891 0.439
0.060359 0.073891 0.439
0.059644 0.073891 0.439
0.059062 0.07406 0.44
0.058345 0.07406 0.44
0.15538 0.065842 0.395
0.15473 0.065842 0.395
0.15409 0.065842 0.395
0.15344 0.065842 0.395
0.1528 0.065842 0.395
0.15216 0.065842 0.395
0.15113 0.065675 0.394
0.15049 0.065675 0.394
0.14985 0.065675 0.394
0.14958 0.065842 0.395
0.14894 0.065842 0.395
0.1483 0.065842 0.395
0.14765 0.065842 0.395
0.14701 0.065842 0.395
0.14636 0.065842 0.395
0.14572 0.065842 0.395
0.14508 0.065842 0.395
0.14443 0.065842 0.395
0.14379 0.065842 0.395
0.14314 0.065842 0.395
0.14286 0.066008 0.396
0.14222 0.066008 0.396
0.14157 0.066008 0.396
0.14093 0.066008 0.396
0.14028 0.066008 0.396
0.13964 0.066008 0.396
0.13899 0.066008 0.396
0.13869 0.066175 0.397
0.13805 0.066175 0.397
0.1374 0.066175 0.397
0.13675 0.066175 0.397
0.13611 0.066175 0.397
0.1358 0.066342 0.398
0.13515 0.066342 0.398
0.1345 0.066342 0.398
0.13419 0.066508 0.399
0.13354 0.066508 0.399
0.13289 0.066508 0.399
0.13257 0.066675 0.4
0.13192 0.066675 0.4
0.13127 0.066675 0.4
0.13094 0.066842 0.401
0.13029 0.066842 0.401
0.12964 0.066842 0.401
0.1293 0.067008 0.402
0.12865 0.067008 0.402
0.12831 0.067175 0.403
0.12765 0.067175 0.403
0.127 0.067175 0.403
0.12665 0.067342 0.404
0.126 0.067342 0.404
0.12534 0.067342 0.404
0.12468 0.067342 0.404
0.12433 0.067509 0.405
0.12397 0.067675 0.406
0.12331 0.067675 0.406
0.12295 0.067842 0.407
0.12229 0.067842 0.407
0.12162 0.067842 0.407
0.12126 0.068009 0.408
0.12059 0.068009 0.408
0.11993 0.068009 0.408
0.11956 0.068175 0.409
0.11889 0.068175 0.409
0.11822 0.068175 0.409
0.11756 0.068175 0.409
0.11718 0.068342 0.41
0.11651 0.068342 0.41
0.11584 0.068342 0.41
0.11489 0.068175 0.409
0.11422 0.068175 0.409
0.11356 0.068175 0.409
0.11289 0.068175 0.409
0.11223 0.068175 0.409
0.11156 0.068175 0.409
0.11089 0.068175 0.409
0.10995 0.068009 0.408
0.10929 0.068009 0.408
0.10863 0.068009 0.408
0.10796 0.068009 0.408
0.1073 0.068009 0.408
0.10663 0.068009 0.408
0.10597 0.068009 0.408
0.1053 0.068009 0.408
0.10464 0.068009 0.408
0.10372 0.067842 0.407
0.10305 0.067842 0.407
0.10239 0.067842 0.407
0.10173 0.067842 0.407
0.10106 0.067842 0.407
0.1004 0.067842 0.407
0.099736 0.067842 0.407
0.099073 0.067842 0.407
0.09841 0.067842 0.407
0.097747 0.067842 0.407
0.097083 0.067842 0.407
0.09642 0.067842 0.407
0.095757 0.067842 0.407
0.095093 0.067842 0.407
0.09443 0.067842 0.407
0.093767 0.067842 0.407
0.093332 0.068009 0.408
0.092667 0.068009 0.408
0.092002 0.068009 0.408
0.091338 0.068009 0.408
0.090895 0.068175 0.409
0.090228 0.068175 0.409
0.089562 0.068175 0.409
0.088895 0.068175 0.409
0.088444 0.068342 0.41
0.087776 0.068342 0.41
0.087108 0.068342 0.41
0.086651 0.068509 0.411
0.085981 0.068509 0.411
0.085311 0.068509 0.411
0.084847 0.068675 0.412
0.084176 0.068675 0.412
0.083707 0.068842 0.413
0.083034 0.068842 0.413
0.082361 0.068842 0.413
0.081886 0.069009 0.414
0.081211 0.069009 0.414
0.080731 0.069175 0.415
0.080054 0.069175 0.415
0.079378 0.069175 0.415
0.078891 0.069342 0.416
0.078401 0.069509 0.417
0.077722 0.069509 0.417
0.077227 0.069675 0.418
0.076546 0.069675 0.418
0.076228 0.070009 0.42
0.075723 0.070176 0.421
0.075037 0.070176 0.421
0.074527 0.070342 0.422
0.07384 0.070342 0.422
0.073499 0.070676 0.424
0.073151 0.071009 0.426
0.072457 0.071009 0.426
0.072099 0.071342 0.428
0.071402 0.071342 0.428
0.07087 0.071509 0.429
0.070334 0.071676 0.43
0.069633 0.071676 0.43
0.069093 0.071842 0.431
0.06839 0.071842 0.431
0.067845 0.072009 0.432
0.067452 0.072343 0.434
0.066744 0.072343 0.434
0.066189 0.072509 0.435
0.06548 0.072509 0.435
0.064771 0.072509 0.435
0.06421 0.072676 0.436
0.063499 0.072676 0.436
0.062933 0.072843 0.437
0.062221 0.072843 0.437
0.061649 0.073009 0.438
0.061074 0.073176 0.439
0.060359 0.073176 0.439
0.059644 0.073176 0.439
0.059062 0.073343 0.44
0.058345 0.073343 0.44
0.15538 0.065198 0.395
0.15473 0.065198 0.395
0.15409 0.065198 0.395
0.15344 0.065198 0.395
0.1528 0.065198 0.395
0.15216 0.065198 0.395
0.15113 0.065033 0.394
0.15049 0.065033 0.394
0.14985 0.065033 0.394
0.14958 0.065198 0.395
0.14894 0.065198 0.395
0.1483 0.065198 0.395
0.14765 0.065198 0.395
0.14701 0.065198 0.395
0.14636 0.065198 0.395
0.14572 0.065198 0.395
0.14508 0.065198 0.395
0.14443 0.065198 0.395
0.14379 0.065198 0.395
0.14314 0.065198 0.395
0.14286 0.065363 0.396
0.14222 0.065363 0.396
0.14157 0.065363 0.396
0.14093 0.065363 0.396
0.14028 0.065363 0.396
0.13964 0.065363 0.396
0.13899 0.065363 0.396
0.13869 0.065528 0.397
0.13805 0.065528 0.397
0.1374 0.065528 0.397
0.13675 0.065528 0.397
0.13611 0.065528 0.397
0.1358 0.065693 0.398
0.13515 0.065693 0.398
0.1345 0.065693 0.398
0.13385 0.065693 0.398
0.13354 0.065858 0.399
0.13289 0.065858 0.399
0.13257 0.066023 0.4
0.13192 0.066023 0.4
0.13159 0.066188 0.401
0.13127 0.066354 0.402
0.13061 0.066354 0.402
0.12996 0.066354 0.402
0.1293 0.066354 0.402
0.12897 0.066519 0.403
0.12863 0.066684 0.404
0.12797 0.066684 0.404
0.12763 0.066849 0.405
0.12728 0.067014 0.406
0.12662 0.067014 0.406
0.12596 0.067014 0.406
0.1253 0.067014 0.406
0.12494 0.067179 0.407
0.12458 0.067344 0.408
0.12392 0.067344 0.408
0.12325 0.067344 0.408
0.12259 0.067344 0.408
0.12222 0.067509 0.409
0.12185 0.067674 0.41
0.12119 0.067674 0.41
0.12052 0.067674 0.41
0.12014 0.067839 0.411
0.11947 0.067839 0.411
0.1188 0.067839 0.411
0.11813 0.067839 0.411
0.11746 0.067839 0.411
0.11679 0.067839 0.411
0.11612 0.067839 0.411
0.11517 0.067674 0.41
0.1145 0.067674 0.41
0.11384 0.067674 0.41
0.11317 0.067674 0.41
0.1125 0.067674 0.41
0.11183 0.067674 0.41
0.11116 0.067674 0.41
0.11023 0.067509 0.409
0.10956 0.067509 0.409
0.10889 0.067509 0.409
0.10823 0.067509 0.409
0.10756 0.067509 0.409
0.10689 0.067509 0.409
0.10597 0.067344 0.408
0.1053 0.067344 0.408
0.10464 0.067344 0.408
0.10397 0.067344 0.408
0.10331 0.067344 0.408
0.10264 0.067344 0.408
0.10198 0.067344 0.408
0.10131 0.067344 0.408
0.10065 0.067344 0.408
0.099982 0.067344 0.408
0.099317 0.067344 0.408
0.098652 0.067344 0.408
0.097987 0.067344 0.408
0.097322 0.067344 0.408
0.096657 0.067344 0.408
0.095992 0.067344 0.408
0.095327 0.067344 0.408
0.094894 0.067509 0.409
0.094228 0.067509 0.409
0.093332 0.067344 0.408
0.092667 0.067344 0.408
0.092002 0.067344 0.408
0.091338 0.067344 0.408
0.090895 0.067509 0.409
0.090228 0.067509 0.409
0.089562 0.067509 0.409
0.088895 0.067509 0.409
0.088444 0.067674 0.41
0.087776 0.067674 0.41
0.087108 0.067674 0.41
0.086651 0.067839 0.411
0.085981 0.067839 0.411
0.085311 0.067839 0.411
0.084847 0.068004 0.412
0.084176 0.068004 0.412
0.083707 0.068169 0.413
0.083034 0.068169 0.413
0.082361 0.068169 0.413
0.081886 0.068334 0.414
0.081211 0.068334 0.414
0.080731 0.068499 0.415
0.080054 0.068499 0.415
0.079378 0.068499 0.415
0.078891 0.068664 0.416
0.078401 0.068829 0.417
0.077722 0.068829 0.417
0.077227 0.068994 0.418
0.076546 0.068994 0.418
0.076228 0.069325 0.42
0.075723 0.06949 0.421
0.075037 0.06949 0.421
0.074527 0.069655 0.422
0.07384 0.069655 0.422
0.073499 0.069985 0.424
0.073151 0.070315 0.426
0.072457 0.070315 0.426
0.071931 0.07048 0.427
0.071235 0.07048 0.427
0.07087 0.07081 0.429
0.070334 0.070975 0.43
0.069633 0.070975 0.43
0.069093 0.07114 0.431
0.06839 0.07114 0.431
0.067845 0.071305 0.432
0.067296 0.07147 0.433
0.066591 0.07147 0.433
0.066037 0.071635 0.434
0.06533 0.071635 0.434
0.064771 0.0718 0.435
0.064063 0.0718 0.435
0.063354 0.0718 0.435
0.062933 0.072131 0.437
0.062221 0.072131 0.437
0.061649 0.072296 0.438
0.15577 0.064718 0.396
0.15512 0.064718 0.396
0.15448 0.064718 0.396
0.15383 0.064718 0.396
0.15319 0.064718 0.396
0.15254 0.064718 0.396
0.15151 0.064555 0.395
0.15087 0.064555 0.395
0.15023 0.064555 0.395
0.14958 0.064555 0.395
0.14894 0.064555 0.395
0.1483 0.064555 0.395
0.14765 0.064555 0.395
0.14701 0.064555 0.395
0.14636 0.064555 0.395
0.14609 0.064718 0.396
0.14508 0.064555 0.395
0.14443 0.064555 0.395
0.14379 0.064555 0.395
0.14314 0.064555 0.395
0.14286 0.064718 0.396
0.14222 0.064718 0.396
0.14157 0.064718 0.396
0.14093 0.064718 0.396
0.14028 0.064718 0.396
0.13999 0.064881 0.397
0.13934 0.064881 0.397
0.13869 0.064881 0.397
0.13805 0.064881 0.397
0.1374 0.064881 0.397
0.1371 0.065045 0.398
0.13645 0.065045 0.398
0.1358 0.065045 0.398
0.13515 0.065045 0.398
0.1345 0.065045 0.398
0.13385 0.065045 0.398
0.13354 0.065208 0.399
0.13289 0.065208 0.399
0.13257 0.065372 0.4
0.13192 0.065372 0.4
0.13159 0.065535 0.401
0.13127 0.065699 0.402
0.13061 0.065699 0.402
0.13028 0.065862 0.403
0.12962 0.065862 0.403
0.12929 0.066025 0.404
0.12895 0.066189 0.405
0.12829 0.066189 0.405
0.12794 0.066352 0.406
0.12728 0.066352 0.406
0.12693 0.066516 0.407
0.12658 0.066679 0.408
0.1256 0.066516 0.407
0.12494 0.066516 0.407
0.12458 0.066679 0.408
0.12392 0.066679 0.408
0.12325 0.066679 0.408
0.12259 0.066679 0.408
0.12222 0.066843 0.409
0.12185 0.067006 0.41
0.12119 0.067006 0.41
0.12052 0.067006 0.41
0.12014 0.067169 0.411
0.11947 0.067169 0.411
0.1188 0.067169 0.411
0.11813 0.067169 0.411
0.11746 0.067169 0.411
0.11679 0.067169 0.411
0.11612 0.067169 0.411
0.11517 0.067006 0.41
0.1145 0.067006 0.41
0.11384 0.067006 0.41
0.11317 0.067006 0.41
0.1125 0.067006 0.41
0.11183 0.067006 0.41
0.11116 0.067006 0.41
0.11023 0.066843 0.409
0.10956 0.066843 0.409
0.10889 0.066843 0.409
0.10823 0.066843 0.409
0.10756 0.066843 0.409
0.10689 0.066843 0.409
0.10597 0.066679 0.408
0.1053 0.066679 0.408
0.10464 0.066679 0.408
0.10397 0.066679 0.408
0.10331 0.066679 0.408
0.10264 0.066679 0.408
0.10198 0.066679 0.408
0.10131 0.066679 0.408
0.10065 0.066679 0.408
0.099982 0.066679 0.408
0.099317 0.066679 0.408
0.098652 0.066679 0.408
0.097987 0.066679 0.408
0.097322 0.066679 0.408
0.096657 0.066679 0.408
0.095992 0.066679 0.408
0.095327 0.066679 0.408
0.094894 0.066843 0.409
0.094228 0.066843 0.409
0.093561 0.066843 0.409
0.092895 0.066843 0.409
0.092228 0.066843 0.409
0.091785 0.067006 0.41
0.091117 0.067006 0.41
0.090449 0.067006 0.41
0.089781 0.067006 0.41
0.089113 0.067006 0.41
0.08866 0.067169 0.411
0.08799 0.067169 0.411
0.08732 0.067169 0.411
0.086862 0.067333 0.412
0.08619 0.067333 0.412
0.085726 0.067496 0.413
0.085053 0.067496 0.413
0.08438 0.067496 0.413
0.08391 0.06766 0.414
0.083436 0.067823 0.415
0.08276 0.067823 0.415
0.082281 0.067987 0.416
0.081603 0.067987 0.416
0.080925 0.067987 0.416
0.08044 0.06815 0.417
0.079761 0.06815 0.417
0.079271 0.068313 0.418
0.078589 0.068313 0.418
0.078095 0.068477 0.419
0.077596 0.06864 0.42
0.076912 0.06864 0.42
0.076409 0.068804 0.421
0.075903 0.068967 0.422
0.075215 0.068967 0.422
0.074881 0.069294 0.424
0.07419 0.069294 0.424
0.073672 0.069457 0.425
0.073151 0.069621 0.426
0.072457 0.069621 0.426
0.071931 0.069784 0.427
0.071235 0.069784 0.427
0.07087 0.070111 0.429
0.070334 0.070275 0.43
0.069633 0.070275 0.43
0.069093 0.070438 0.431
0.06839 0.070438 0.431
0.067845 0.070601 0.432
0.067296 0.070765 0.433
0.066591 0.070765 0.433
0.066037 0.070928 0.434
0.06533 0.070928 0.434
0.064771 0.071092 0.435
0.064063 0.071092 0.435
0.063354 0.071092 0.435
0.15616 0.064235 0.397
0.15552 0.064235 0.397
0.15448 0.064073 0.396
0.15383 0.064073 0.396
0.15319 0.064073 0.396
0.15254 0.064073 0.396
0.15151 0.063911 0.395
0.15087 0.063911 0.395
0.15023 0.063911 0.395
0.14958 0.063911 0.395
0.14894 0.063911 0.395
0.1483 0.063911 0.395
0.14765 0.063911 0.395
0.14701 0.063911 0.395
0.14636 0.063911 0.395
0.14609 0.064073 0.396
0.14508 0.063911 0.395
0.14443 0.063911 0.395
0.14379 0.063911 0.395
0.14314 0.063911 0.395
0.14286 0.064073 0.396
0.14222 0.064073 0.396
0.14157 0.064073 0.396
0.14093 0.064073 0.396
0.14028 0.064073 0.396
0.13999 0.064235 0.397
0.13934 0.064235 0.397
0.13869 0.064235 0.397
0.13805 0.064235 0.397
0.1374 0.064235 0.397
0.13675 0.064235 0.397
0.13645 0.064396 0.398
0.1358 0.064396 0.398
0.13515 0.064396 0.398
0.1345 0.064396 0.398
0.13385 0.064396 0.398
0.13354 0.064558 0.399
0.13289 0.064558 0.399
0.13257 0.06472 0.4
0.13192 0.06472 0.4
0.13159 0.064882 0.401
0.13127 0.065044 0.402
0.13061 0.065044 0.402
0.13028 0.065205 0.403
0.12962 0.065205 0.403
0.12929 0.065367 0.404
0.12895 0.065529 0.405
0.12829 0.065529 0.405
0.12794 0.065691 0.406
0.12728 0.065691 0.406
0.12693 0.065853 0.407
0.12658 0.066014 0.408
0.12591 0.066014 0.408
0.12556 0.066176 0.409
0.12519 0.066338 0.41
0.12453 0.066338 0.41
0.12416 0.0665 0.411
0.12349 0.0665 0.411
0.12282 0.0665 0.411
0.12245 0.066662 0.412
0.12178 0.066662 0.412
0.12111 0.066662 0.412
0.12043 0.066662 0.412
0.12005 0.066823 0.413
0.11938 0.066823 0.413
0.11842 0.066662 0.412
0.11775 0.066662 0.412
0.11708 0.066662 0.412
0.1164 0.066662 0.412
0.11573 0.066662 0.412
0.11506 0.066662 0.412
0.11411 0.0665 0.411
0.11344 0.0665 0.411
0.11277 0.0665 0.411
0.1121 0.0665 0.411
0.11143 0.0665 0.411
0.11049 0.066338 0.41
0.10983 0.066338 0.41
0.10916 0.066338 0.41
0.10849 0.066338 0.41
0.10782 0.066338 0.41
0.10715 0.066338 0.41
0.10648 0.066338 0.41
0.10582 0.066338 0.41
0.10489 0.066176 0.409
0.10423 0.066176 0.409
0.10356 0.066176 0.409
0.10289 0.066176 0.409
0.10223 0.066176 0.409
0.10156 0.066176 0.409
0.10089 0.066176 0.409
0.10023 0.066176 0.409
0.09956 0.066176 0.409
0.098893 0.066176 0.409
0.098227 0.066176 0.409
0.09756 0.066176 0.409
0.097131 0.066338 0.41
0.096463 0.066338 0.41
0.095794 0.066338 0.41
0.095126 0.066338 0.41
0.094458 0.066338 0.41
0.09379 0.066338 0.41
0.093122 0.066338 0.41
0.092453 0.066338 0.41
0.092009 0.0665 0.411
0.091339 0.0665 0.411
0.09067 0.0665 0.411
0.09 0.0665 0.411
0.08933 0.0665 0.411
0.088876 0.066662 0.412
0.088418 0.066823 0.413
0.087745 0.066823 0.413
0.087072 0.066823 0.413
0.086399 0.066823 0.413
0.085934 0.066985 0.414
0.085465 0.067147 0.415
0.084789 0.067147 0.415
0.084315 0.067309 0.416
0.083637 0.067309 0.416
0.082959 0.067309 0.416
0.082479 0.067471 0.417
0.081799 0.067471 0.417
0.081314 0.067632 0.418
0.080826 0.067794 0.419
0.080143 0.067794 0.419
0.07965 0.067956 0.42
0.078965 0.067956 0.42
0.078467 0.068118 0.421
0.077966 0.06828 0.422
0.077278 0.06828 0.422
0.076591 0.06828 0.422
0.076083 0.068441 0.423
0.075393 0.068441 0.423
0.074881 0.068603 0.424
0.07419 0.068603 0.424
0.073672 0.068765 0.425
0.073151 0.068927 0.426
0.072457 0.068927 0.426
0.071931 0.069089 0.427
0.071235 0.069089 0.427
0.070704 0.06925 0.428
0.07017 0.069412 0.429
0.069471 0.069412 0.429
0.068932 0.069574 0.43
0.068232 0.069574 0.43
0.067688 0.069736 0.431
0.067141 0.069898 0.432
0.066437 0.069898 0.432
0.066037 0.070221 0.434
0.06533 0.070221 0.434
0.064771 0.070383 0.435
0.064063 0.070383 0.435
0.063354 0.070383 0.435
0.15616 0.063588 0.397
0.15552 0.063588 0.397
0.15487 0.063588 0.397
0.15383 0.063428 0.396
0.15319 0.063428 0.396
0.15254 0.063428 0.396
0.15151 0.063267 0.395
0.15087 0.063267 0.395
0.15023 0.063267 0.395
0.14958 0.063267 0.395
0.14894 0.063267 0.395
0.1483 0.063267 0.395
0.14765 0.063267 0.395
0.14701 0.063267 0.395
0.14636 0.063267 0.395
0.14572 0.063267 0.395
0.14508 0.063267 0.395
0.14443 0.063267 0.395
0.14379 0.063267 0.395
0.14314 0.063267 0.395
0.1425 0.063267 0.395
0.14186 0.063267 0.395
0.14157 0.063428 0.396
0.14093 0.063428 0.396
0.14028 0.063428 0.396
0.13964 0.063428 0.396
0.13899 0.063428 0.396
0.13834 0.063428 0.396
0.13805 0.063588 0.397
0.1374 0.063588 0.397
0.13675 0.063588 0.397
0.13645 0.063748 0.398
0.1358 0.063748 0.398
0.13515 0.063748 0.398
0.1345 0.063748 0.398
0.13419 0.063908 0.399
0.13387 0.064068 0.4
0.13322 0.064068 0.4
0.1329 0.064228 0.401
0.13225 0.064228 0.401
0.13159 0.064228 0.401
0.13127 0.064389 0.402
0.13061 0.064389 0.402
0.13028 0.064549 0.403
0.12962 0.064549 0.403
0.12929 0.064709 0.404
0.12927 0.065029 0.406
0.1286 0.065029 0.406
0.12826 0.065189 0.407
0.12759 0.065189 0.407
0.12724 0.06535 0.408
0.1272 0.06567 0.41
0.12653 0.06567 0.41
0.12617 0.06583 0.411
0.1255 0.06583 0.411
0.12513 0.06599 0.412
0.12476 0.06615 0.413
0.12409 0.06615 0.413
0.12342 0.06615 0.413
0.12304 0.066311 0.414
0.12237 0.066311 0.414
0.12169 0.066311 0.414
0.12102 0.066311 0.414
0.12034 0.066311 0.414
0.11967 0.066311 0.414
0.11899 0.066311 0.414
0.11832 0.066311 0.414
0.11764 0.066311 0.414
0.11669 0.06615 0.413
0.11601 0.06615 0.413
0.11534 0.06615 0.413
0.11467 0.06615 0.413
0.11399 0.06615 0.413
0.11305 0.06599 0.412
0.11238 0.06599 0.412
0.1117 0.06599 0.412
0.11076 0.06583 0.411
0.11009 0.06583 0.411
0.10942 0.06583 0.411
0.10875 0.06583 0.411
0.10809 0.06583 0.411
0.10741 0.06583 0.411
0.10675 0.06583 0.411
0.10608 0.06583 0.411
0.1054 0.06583 0.411
0.10474 0.06583 0.411
0.10407 0.06583 0.411
0.10289 0.06551 0.409
0.10223 0.06551 0.409
0.10156 0.06551 0.409
0.10089 0.06551 0.409
0.10023 0.06551 0.409
0.09956 0.06551 0.409
0.098893 0.06551 0.409
0.098227 0.06551 0.409
0.09756 0.06551 0.409
0.097131 0.06567 0.41
0.096463 0.06567 0.41
0.095794 0.06567 0.41
0.095126 0.06567 0.41
0.094458 0.06567 0.41
0.09379 0.06567 0.41
0.093122 0.06567 0.41
0.092453 0.06567 0.41
0.092009 0.06583 0.411
0.091339 0.06583 0.411
0.09067 0.06583 0.411
0.09 0.06583 0.411
0.08933 0.06583 0.411
0.088876 0.06599 0.412
0.088418 0.06615 0.413
0.087745 0.06615 0.413
0.087072 0.06615 0.413
0.086399 0.06615 0.413
0.085934 0.066311 0.414
0.085465 0.066471 0.415
0.084789 0.066471 0.415
0.084315 0.066631 0.416
0.083637 0.066631 0.416
0.082959 0.066631 0.416
0.082479 0.066791 0.417
0.081799 0.066791 0.417
0.081314 0.066951 0.418
0.080826 0.067111 0.419
0.080143 0.067111 0.419
0.07965 0.067272 0.42
0.078965 0.067272 0.42
0.078467 0.067432 0.421
0.077966 0.067592 0.422
0.077278 0.067592 0.422
0.076591 0.067592 0.422
0.076083 0.067752 0.423
0.075393 0.067752 0.423
0.074881 0.067912 0.424
0.07419 0.067912 0.424
0.073672 0.068072 0.425
0.073151 0.068233 0.426
0.072457 0.068233 0.426
0.071931 0.068393 0.427
0.071235 0.068393 0.427
0.070704 0.068553 0.428
0.07017 0.068713 0.429
0.069471 0.068713 0.429
0.068932 0.068873 0.43
0.068232 0.068873 0.43
0.067531 0.068873 0.43
0.066985 0.069034 0.431
0.066283 0.069034 0.431
0.065733 0.069194 0.432
0.064771 0.069674 0.435
0.064063 0.069674 0.435
0.063354 0.069674 0.435
0.15616 0.062941 0.397
0.15552 0.062941 0.397
0.15487 0.062941 0.397
0.15422 0.062941 0.397
0.15357 0.062941 0.397
0.15293 0.062941 0.397
0.15228 0.062941 0.397
0.15125 0.062782 0.396
0.15061 0.062782 0.396
0.14996 0.062782 0.396
0.14932 0.062782 0.396
0.14867 0.062782 0.396
0.14802 0.062782 0.396
0.14701 0.062624 0.395
0.14636 0.062624 0.395
0.14572 0.062624 0.395
0.14508 0.062624 0.395
0.14443 0.062624 0.395
0.14379 0.062624 0.395
