ply
format ascii 1.0
comment Created by Open3D
element vertex 1903
property double x
property double y
property double z
end_header
-0.10306 -0.078265 0.354
-0.10334 -0.078044 0.353
-0.10392 -0.078044 0.353
-0.10449 -0.078044 0.353
-0.1256 -0.087993 0.398
-0.12624 -0.087993 0.398
-0.12689 -0.087993 0.398
-0.12754 -0.087993 0.398
-0.12819 -0.087993 0.398
-0.12884 -0.087993 0.398
-0.12949 -0.087993 0.398
-0.12981 -0.087772 0.397
-0.13046 -0.087772 0.397
-0.13143 -0.087993 0.398
-0.13208 -0.087993 0.398
-0.13273 -0.087993 0.398
-0.13338 -0.087993 0.398
-0.13403 -0.087993 0.398
-0.13501 -0.088214 0.399
-0.13567 -0.088214 0.399
-0.13632 -0.088214 0.399
-0.13731 -0.088436 0.4
-0.13796 -0.088436 0.4
-0.13861 -0.088436 0.4
-0.13926 -0.088436 0.4
-0.13992 -0.088436 0.4
-0.14092 -0.088657 0.401
-0.14157 -0.088657 0.401
-0.14223 -0.088657 0.401
-0.14288 -0.088657 0.401
-0.14353 -0.088657 0.401
-0.14455 -0.088878 0.402
-0.1452 -0.088878 0.402
-0.14586 -0.088878 0.402
-0.14724 -0.08932 0.404
-0.1479 -0.08932 0.404
-0.14966 -0.089983 0.407
-0.16081 -0.094184 0.426
-0.16151 -0.094184 0.426
-0.1622 -0.094184 0.426
-0.16404 -0.094847 0.429
-0.16513 -0.095068 0.43
-0.16583 -0.095068 0.43
-0.16692 -0.095289 0.431
-0.16762 -0.095289 0.431
-0.16832 -0.095289 0.431
-0.16942 -0.09551 0.432
-0.17012 -0.09551 0.432
-0.17122 -0.095731 0.433
-0.17192 -0.095731 0.433
-0.076412 -0.089533 0.402
-0.077067 -0.089533 0.402
-0.077722 -0.089533 0.402
-0.078183 -0.08931 0.401
-0.078836 -0.08931 0.401
-0.078895 -0.088642 0.398
-0.078744 -0.087751 0.394
-0.079386 -0.087751 0.394
-0.079419 -0.087083 0.391
-0.080056 -0.087083 0.391
-0.079661 -0.085969 0.386
-0.080291 -0.085969 0.386
-0.0805 -0.085524 0.384
-0.080915 -0.085301 0.383
-0.081539 -0.085301 0.383
-0.081734 -0.084856 0.381
-0.082355 -0.084856 0.381
-0.082976 -0.084856 0.381
-0.083378 -0.084633 0.38
-0.083776 -0.08441 0.379
-0.084393 -0.08441 0.379
-0.085011 -0.08441 0.379
-0.085177 -0.083965 0.377
-0.085791 -0.083965 0.377
-0.086177 -0.083742 0.376
-0.086789 -0.083742 0.376
-0.08717 -0.083519 0.375
-0.087313 -0.083074 0.373
-0.087685 -0.082851 0.372
-0.088291 -0.082851 0.372
-0.088658 -0.082628 0.371
-0.088782 -0.082183 0.369
-0.089383 -0.082183 0.369
-0.089741 -0.08196 0.368
-0.090095 -0.081738 0.367
-0.090693 -0.081738 0.367
-0.091042 -0.081515 0.366
-0.091138 -0.081069 0.364
-0.091731 -0.081069 0.364
-0.092071 -0.080847 0.363
-0.092407 -0.080624 0.362
-0.092997 -0.080624 0.362
-0.093328 -0.080401 0.361
-0.093657 -0.080179 0.36
-0.094243 -0.080179 0.36
-0.094567 -0.079956 0.359
-0.094887 -0.079733 0.358
-0.09547 -0.079733 0.358
-0.096054 -0.079733 0.358
-0.096637 -0.079733 0.358
-0.096949 -0.07951 0.357
-0.097257 -0.079288 0.356
-0.097838 -0.079288 0.356
-0.098418 -0.079288 0.356
-0.09872 -0.079065 0.355
-0.099298 -0.079065 0.355
-0.099877 -0.079065 0.355
-0.10046 -0.079065 0.355
-0.10103 -0.079065 0.355
-0.10133 -0.078842 0.354
-0.1019 -0.078842 0.354
-0.10248 -0.078842 0.354
-0.10306 -0.078842 0.354
-0.10334 -0.07862 0.353
-0.10392 -0.07862 0.353
-0.10449 -0.07862 0.353
-0.12528 -0.088419 0.397
-0.12593 -0.088419 0.397
-0.12657 -0.088419 0.397
-0.12722 -0.088419 0.397
-0.12787 -0.088419 0.397
-0.12851 -0.088419 0.397
-0.12916 -0.088419 0.397
-0.12981 -0.088419 0.397
-0.13046 -0.088419 0.397
-0.1311 -0.088419 0.397
-0.13175 -0.088419 0.397
-0.1324 -0.088419 0.397
-0.13304 -0.088419 0.397
-0.13369 -0.088419 0.397
-0.13468 -0.088642 0.398
-0.13533 -0.088642 0.398
-0.13597 -0.088642 0.398
-0.13662 -0.088642 0.398
-0.13727 -0.088642 0.398
-0.13827 -0.088865 0.399
-0.13892 -0.088865 0.399
-0.13957 -0.088865 0.399
-0.14057 -0.089087 0.4
-0.14122 -0.089087 0.4
-0.14187 -0.089087 0.4
-0.14252 -0.089087 0.4
-0.14318 -0.089087 0.4
-0.14383 -0.089087 0.4
-0.14448 -0.089087 0.4
-0.14513 -0.089087 0.4
-0.14724 -0.089978 0.404
-0.1479 -0.089978 0.404
-0.14966 -0.090646 0.407
-0.15868 -0.094433 0.424
-0.15937 -0.094433 0.424
-0.16006 -0.094433 0.424
-0.16151 -0.094878 0.426
-0.1622 -0.094878 0.426
-0.16404 -0.095546 0.429
-0.16513 -0.095769 0.43
-0.16583 -0.095769 0.43
-0.16692 -0.095992 0.431
-0.16762 -0.095992 0.431
-0.16832 -0.095992 0.431
-0.16942 -0.096214 0.432
-0.17012 -0.096214 0.432
-0.17122 -0.096437 0.433
-0.17192 -0.096437 0.433
-0.17263 -0.096437 0.433
-0.077722 -0.090188 0.402
-0.078183 -0.089963 0.401
-0.078836 -0.089963 0.401
-0.078895 -0.08929 0.398
-0.078744 -0.088393 0.394
-0.079386 -0.088393 0.394
-0.079419 -0.08772 0.391
-0.080056 -0.08772 0.391
-0.079455 -0.086374 0.385
-0.080083 -0.086374 0.385
-0.080291 -0.085925 0.383
-0.080704 -0.085701 0.382
-0.081326 -0.085701 0.382
-0.081734 -0.085476 0.381
-0.082139 -0.085252 0.38
-0.082758 -0.085252 0.38
-0.083378 -0.085252 0.38
-0.083776 -0.085028 0.379
-0.084393 -0.085028 0.379
-0.084787 -0.084803 0.378
-0.084951 -0.084355 0.376
-0.085564 -0.084355 0.376
-0.085947 -0.08413 0.375
-0.086328 -0.083906 0.374
-0.086937 -0.083906 0.374
-0.087313 -0.083682 0.373
-0.087449 -0.083233 0.371
-0.088054 -0.083233 0.371
-0.08818 -0.082784 0.369
-0.088541 -0.08256 0.368
-0.089141 -0.08256 0.368
-0.089497 -0.082336 0.367
-0.089849 -0.082111 0.366
-0.090446 -0.082111 0.366
-0.090794 -0.081887 0.365
-0.090888 -0.081438 0.363
-0.091479 -0.081438 0.363
-0.091817 -0.081214 0.362
-0.092152 -0.080989 0.361
-0.09274 -0.080989 0.361
-0.09307 -0.080765 0.36
-0.093397 -0.080541 0.359
-0.093982 -0.080541 0.359
-0.094303 -0.080316 0.358
-0.094622 -0.080092 0.357
-0.095203 -0.080092 0.357
-0.095785 -0.080092 0.357
-0.096097 -0.079868 0.356
-0.096677 -0.079868 0.356
-0.097257 -0.079868 0.356
-0.097838 -0.079868 0.356
-0.098141 -0.079643 0.355
-0.09872 -0.079643 0.355
-0.099298 -0.079643 0.355
-0.099596 -0.079419 0.354
-0.10017 -0.079419 0.354
-0.10075 -0.079419 0.354
-0.10133 -0.079419 0.354
-0.1019 -0.079419 0.354
-0.10248 -0.079419 0.354
-0.10277 -0.079195 0.353
-0.10334 -0.079195 0.353
-0.10392 -0.079195 0.353
-0.10449 -0.079195 0.353
-0.12528 -0.089066 0.397
-0.12593 -0.089066 0.397
-0.12626 -0.088842 0.396
-0.1269 -0.088842 0.396
-0.12755 -0.088842 0.396
-0.12819 -0.088842 0.396
-0.12884 -0.088842 0.396
-0.12948 -0.088842 0.396
-0.13013 -0.088842 0.396
-0.13077 -0.088842 0.396
-0.13142 -0.088842 0.396
-0.13206 -0.088842 0.396
-0.13271 -0.088842 0.396
-0.13335 -0.088842 0.396
-0.13434 -0.089066 0.397
-0.13498 -0.089066 0.397
-0.13563 -0.089066 0.397
-0.13662 -0.08929 0.398
-0.13727 -0.08929 0.398
-0.13792 -0.08929 0.398
-0.13857 -0.08929 0.398
-0.13922 -0.08929 0.398
-0.14022 -0.089515 0.399
-0.14087 -0.089515 0.399
-0.14152 -0.089515 0.399
-0.14217 -0.089515 0.399
-0.14282 -0.089515 0.399
-0.14347 -0.089515 0.399
-0.14412 -0.089515 0.399
-0.14477 -0.089515 0.399
-0.15868 -0.095123 0.424
-0.15937 -0.095123 0.424
-0.16006 -0.095123 0.424
-0.16227 -0.096021 0.428
-0.16296 -0.096021 0.428
-0.16443 -0.096469 0.43
-0.16551 -0.096694 0.431
-0.16621 -0.096694 0.431
-0.1673 -0.096918 0.432
-0.16801 -0.096918 0.432
-0.16871 -0.096918 0.432
-0.16942 -0.096918 0.432
-0.17012 -0.096918 0.432
-0.17122 -0.097142 0.433
-0.17192 -0.097142 0.433
-0.17263 -0.097142 0.433
-0.077722 -0.090843 0.402
-0.078183 -0.090617 0.401
-0.078836 -0.090617 0.401
-0.078895 -0.089939 0.398
-0.078744 -0.089035 0.394
-0.079386 -0.089035 0.394
-0.079419 -0.088357 0.391
-0.080056 -0.088357 0.391
-0.079455 -0.087001 0.385
-0.080083 -0.087001 0.385
-0.080291 -0.086549 0.383
-0.080704 -0.086323 0.382
-0.081326 -0.086323 0.382
-0.081734 -0.086097 0.381
-0.082139 -0.085871 0.38
-0.082758 -0.085871 0.38
-0.083158 -0.085645 0.379
-0.083776 -0.085645 0.379
-0.084393 -0.085645 0.379
-0.084563 -0.085193 0.377
-0.084951 -0.084967 0.376
-0.085564 -0.084967 0.376
-0.085947 -0.084741 0.375
-0.086097 -0.084289 0.373
-0.086705 -0.084289 0.373
-0.087079 -0.084063 0.372
-0.087213 -0.083611 0.37
-0.087816 -0.083611 0.37
-0.08818 -0.083385 0.369
-0.088301 -0.082933 0.367
-0.088899 -0.082933 0.367
-0.089253 -0.082708 0.366
-0.089604 -0.082482 0.365
-0.090199 -0.082482 0.365
-0.090545 -0.082256 0.364
-0.090888 -0.08203 0.363
-0.091479 -0.08203 0.363
-0.091564 -0.081578 0.361
-0.091897 -0.081352 0.36
-0.092483 -0.081352 0.36
-0.092811 -0.081126 0.359
-0.093136 -0.0809 0.358
-0.09372 -0.0809 0.358
-0.09404 -0.080674 0.357
-0.094622 -0.080674 0.357
-0.095203 -0.080674 0.357
-0.095517 -0.080448 0.356
-0.095827 -0.080222 0.355
-0.096406 -0.080222 0.355
-0.096984 -0.080222 0.355
-0.097288 -0.079996 0.354
-0.097865 -0.079996 0.354
-0.098442 -0.079996 0.354
-0.099019 -0.079996 0.354
-0.099596 -0.079996 0.354
-0.09989 -0.07977 0.353
-0.10046 -0.07977 0.353
-0.10104 -0.07977 0.353
-0.1019 -0.079996 0.354
-0.10248 -0.079996 0.354
-0.10277 -0.07977 0.353
-0.10334 -0.07977 0.353
-0.10392 -0.07977 0.353
-0.10449 -0.07977 0.353
-0.12626 -0.089487 0.396
-0.1269 -0.089487 0.396
-0.12755 -0.089487 0.396
-0.12819 -0.089487 0.396
-0.12884 -0.089487 0.396
-0.12948 -0.089487 0.396
-0.13013 -0.089487 0.396
-0.13077 -0.089487 0.396
-0.13142 -0.089487 0.396
-0.13206 -0.089487 0.396
-0.13271 -0.089487 0.396
-0.13335 -0.089487 0.396
-0.13434 -0.089713 0.397
-0.13498 -0.089713 0.397
-0.13563 -0.089713 0.397
-0.13662 -0.089939 0.398
-0.13727 -0.089939 0.398
-0.13792 -0.089939 0.398
-0.13857 -0.089939 0.398
-0.13922 -0.089939 0.398
-0.14022 -0.090165 0.399
-0.14087 -0.090165 0.399
-0.14152 -0.090165 0.399
-0.14217 -0.090165 0.399
-0.14282 -0.090165 0.399
-0.14347 -0.090165 0.399
-0.14412 -0.090165 0.399
-0.14477 -0.090165 0.399
-0.15868 -0.095814 0.424
-0.15937 -0.095814 0.424
-0.16006 -0.095814 0.424
-0.16227 -0.096718 0.428
-0.16296 -0.096718 0.428
-0.16443 -0.09717 0.43
-0.16551 -0.097396 0.431
-0.16621 -0.097396 0.431
-0.1673 -0.097622 0.432
-0.16801 -0.097622 0.432
-0.16871 -0.097622 0.432
-0.16942 -0.097622 0.432
-0.17012 -0.097622 0.432
-0.17082 -0.097622 0.432
-0.17192 -0.097848 0.433
-0.17263 -0.097848 0.433
-0.079455 -0.087628 0.385
-0.080083 -0.087628 0.385
-0.080291 -0.087173 0.383
-0.080704 -0.086946 0.382
-0.081326 -0.086946 0.382
-0.081734 -0.086718 0.381
-0.082139 -0.08649 0.38
-0.082758 -0.08649 0.38
-0.083158 -0.086263 0.379
-0.083776 -0.086263 0.379
-0.084393 -0.086263 0.379
-0.084563 -0.085808 0.377
-0.084951 -0.08558 0.376
-0.085564 -0.08558 0.376
-0.085947 -0.085352 0.375
-0.086097 -0.084897 0.373
-0.086705 -0.084897 0.373
-0.087079 -0.084669 0.372
-0.087213 -0.084214 0.37
-0.087816 -0.084214 0.37
-0.08818 -0.083987 0.369
-0.088301 -0.083531 0.367
-0.088899 -0.083531 0.367
-0.089253 -0.083304 0.366
-0.089604 -0.083076 0.365
-0.090199 -0.083076 0.365
-0.090545 -0.082849 0.364
-0.090888 -0.082621 0.363
-0.091479 -0.082621 0.363
-0.091564 -0.082166 0.361
-0.091897 -0.081938 0.36
-0.092483 -0.081938 0.36
-0.092811 -0.081711 0.359
-0.093136 -0.081483 0.358
-0.09372 -0.081483 0.358
-0.09404 -0.081255 0.357
-0.094622 -0.081255 0.357
-0.095203 -0.081255 0.357
-0.095517 -0.081028 0.356
-0.095827 -0.0808 0.355
-0.096406 -0.0808 0.355
-0.096984 -0.0808 0.355
-0.097288 -0.080573 0.354
-0.097865 -0.080573 0.354
-0.098442 -0.080573 0.354
-0.099019 -0.080573 0.354
-0.099596 -0.080573 0.354
-0.09989 -0.080345 0.353
-0.10046 -0.080345 0.353
-0.10104 -0.080345 0.353
-0.10161 -0.080345 0.353
-0.10219 -0.080345 0.353
-0.10277 -0.080345 0.353
-0.10334 -0.080345 0.353
-0.10392 -0.080345 0.353
-0.10449 -0.080345 0.353
-0.10507 -0.080345 0.353
-0.10564 -0.080345 0.353
-0.10622 -0.080345 0.353
-0.12626 -0.090132 0.396
-0.12658 -0.089904 0.395
-0.12722 -0.089904 0.395
-0.12787 -0.089904 0.395
-0.12851 -0.089904 0.395
-0.12915 -0.089904 0.395
-0.1298 -0.089904 0.395
-0.13044 -0.089904 0.395
-0.13109 -0.089904 0.395
-0.13206 -0.090132 0.396
-0.13271 -0.090132 0.396
-0.13335 -0.090132 0.396
-0.13434 -0.09036 0.397
-0.13498 -0.09036 0.397
-0.13563 -0.09036 0.397
-0.13628 -0.09036 0.397
-0.13693 -0.09036 0.397
-0.13792 -0.090587 0.398
-0.13857 -0.090587 0.398
-0.13922 -0.090587 0.398
-0.13987 -0.090587 0.398
-0.14051 -0.090587 0.398
-0.14116 -0.090587 0.398
-0.14181 -0.090587 0.398
-0.14246 -0.090587 0.398
-0.14311 -0.090587 0.398
-0.14376 -0.090587 0.398
-0.14441 -0.090587 0.398
-0.15905 -0.096733 0.425
-0.15974 -0.096733 0.425
-0.16044 -0.096733 0.425
-0.16265 -0.097643 0.429
-0.16334 -0.097643 0.429
-0.16481 -0.098098 0.431
-0.16551 -0.098098 0.431
-0.16621 -0.098098 0.431
-0.1673 -0.098326 0.432
-0.16801 -0.098326 0.432
-0.16871 -0.098326 0.432
-0.16942 -0.098326 0.432
-0.17012 -0.098326 0.432
-0.17082 -0.098326 0.432
-0.17192 -0.098553 0.433
-0.17263 -0.098553 0.433
-0.079455 -0.088256 0.385
-0.080083 -0.088256 0.385
-0.080081 -0.087568 0.382
-0.080492 -0.087339 0.381
-0.081113 -0.087339 0.381
-0.08152 -0.087109 0.38
-0.082139 -0.087109 0.38
-0.082758 -0.087109 0.38
-0.083158 -0.08688 0.379
-0.083555 -0.086651 0.378
-0.084171 -0.086651 0.378
-0.084563 -0.086422 0.377
-0.084951 -0.086193 0.376
-0.085564 -0.086193 0.376
-0.085718 -0.085734 0.374
-0.086097 -0.085505 0.373
-0.086705 -0.085505 0.373
-0.086844 -0.085046 0.371
-0.086978 -0.084588 0.369
-0.087579 -0.084588 0.369
-0.087941 -0.084359 0.368
-0.08806 -0.0839 0.366
-0.088656 -0.0839 0.366
-0.089009 -0.083671 0.365
-0.089358 -0.083442 0.364
-0.089952 -0.083442 0.364
-0.090296 -0.083212 0.363
-0.090637 -0.082983 0.362
-0.091227 -0.082983 0.362
-0.091564 -0.082754 0.361
-0.091897 -0.082525 0.36
-0.092483 -0.082525 0.36
-0.092811 -0.082296 0.359
-0.093136 -0.082066 0.358
-0.09372 -0.082066 0.358
-0.09404 -0.081837 0.357
-0.094357 -0.081608 0.356
-0.094937 -0.081608 0.356
-0.095249 -0.081379 0.355
-0.095557 -0.081149 0.354
-0.096134 -0.081149 0.354
-0.096711 -0.081149 0.354
-0.097288 -0.081149 0.354
-0.097865 -0.081149 0.354
-0.098164 -0.08092 0.353
-0.098739 -0.08092 0.353
-0.099314 -0.08092 0.353
-0.09989 -0.08092 0.353
-0.10046 -0.08092 0.353
-0.10104 -0.08092 0.353
-0.10133 -0.080691 0.352
-0.1019 -0.080691 0.352
-0.10247 -0.080691 0.352
-0.10305 -0.080691 0.352
-0.10362 -0.080691 0.352
-0.1042 -0.080691 0.352
-0.10477 -0.080691 0.352
-0.10564 -0.08092 0.353
-0.10622 -0.08092 0.353
-0.10679 -0.08092 0.353
-0.10737 -0.08092 0.353
-0.12658 -0.090548 0.395
-0.12722 -0.090548 0.395
-0.12754 -0.090319 0.394
-0.12819 -0.090319 0.394
-0.12915 -0.090548 0.395
-0.1298 -0.090548 0.395
-0.13044 -0.090548 0.395
-0.13109 -0.090548 0.395
-0.13173 -0.090548 0.395
-0.13271 -0.090777 0.396
-0.13335 -0.090777 0.396
-0.134 -0.090777 0.396
-0.13498 -0.091006 0.397
-0.13563 -0.091006 0.397
-0.13628 -0.091006 0.397
-0.13693 -0.091006 0.397
-0.13757 -0.091006 0.397
-0.13857 -0.091236 0.398
-0.13922 -0.091236 0.398
-0.13987 -0.091236 0.398
-0.14051 -0.091236 0.398
-0.14116 -0.091236 0.398
-0.14181 -0.091236 0.398
-0.14246 -0.091236 0.398
-0.14311 -0.091236 0.398
-0.14376 -0.091236 0.398
-0.14441 -0.091236 0.398
-0.15905 -0.097425 0.425
-0.15974 -0.097425 0.425
-0.16044 -0.097425 0.425
-0.16302 -0.098571 0.43
-0.16373 -0.098571 0.43
-0.16519 -0.09903 0.432
-0.16589 -0.09903 0.432
-0.1666 -0.09903 0.432
-0.1673 -0.09903 0.432
-0.16801 -0.09903 0.432
-0.16871 -0.09903 0.432
-0.16942 -0.09903 0.432
-0.17012 -0.09903 0.432
-0.17122 -0.099259 0.433
-0.17192 -0.099259 0.433
-0.17263 -0.099259 0.433
-0.080081 -0.08819 0.382
-0.080492 -0.087959 0.381
-0.081113 -0.087959 0.381
-0.08152 -0.087729 0.38
-0.082139 -0.087729 0.38
-0.082758 -0.087729 0.38
-0.083158 -0.087498 0.379
-0.083555 -0.087267 0.378
-0.084171 -0.087267 0.378
-0.084338 -0.086805 0.376
-0.084725 -0.086574 0.375
-0.085336 -0.086574 0.375
-0.085489 -0.086113 0.373
-0.085866 -0.085882 0.372
-0.086472 -0.085882 0.372
-0.08661 -0.08542 0.37
-0.086978 -0.085189 0.369
-0.087579 -0.085189 0.369
-0.087702 -0.084727 0.367
-0.08806 -0.084496 0.366
-0.088656 -0.084496 0.366
-0.089009 -0.084266 0.365
-0.089358 -0.084035 0.364
-0.089952 -0.084035 0.364
-0.090296 -0.083804 0.363
-0.090637 -0.083573 0.362
-0.091227 -0.083573 0.362
-0.09131 -0.083111 0.36
-0.091641 -0.08288 0.359
-0.092226 -0.08288 0.359
-0.092811 -0.08288 0.359
-0.093136 -0.08265 0.358
-0.09372 -0.08265 0.358
-0.09404 -0.082419 0.357
-0.094357 -0.082188 0.356
-0.094937 -0.082188 0.356
-0.095249 -0.081957 0.355
-0.095557 -0.081726 0.354
-0.096134 -0.081726 0.354
-0.096711 -0.081726 0.354
-0.097288 -0.081726 0.354
-0.097865 -0.081726 0.354
-0.098164 -0.081495 0.353
-0.098739 -0.081495 0.353
-0.099314 -0.081495 0.353
-0.09989 -0.081495 0.353
-0.10046 -0.081495 0.353
-0.10104 -0.081495 0.353
-0.10133 -0.081264 0.352
-0.1019 -0.081264 0.352
-0.10247 -0.081264 0.352
-0.10305 -0.081264 0.352
-0.10362 -0.081264 0.352
-0.1042 -0.081264 0.352
-0.10477 -0.081264 0.352
-0.10564 -0.081495 0.353
-0.10622 -0.081495 0.353
-0.10679 -0.081495 0.353
-0.10737 -0.081495 0.353
-0.12754 -0.090961 0.394
-0.12819 -0.090961 0.394
-0.12915 -0.091192 0.395
-0.1298 -0.091192 0.395
-0.13044 -0.091192 0.395
-0.13109 -0.091192 0.395
-0.13173 -0.091192 0.395
-0.13271 -0.091422 0.396
-0.13335 -0.091422 0.396
-0.134 -0.091422 0.396
-0.13498 -0.091653 0.397
-0.13563 -0.091653 0.397
-0.13628 -0.091653 0.397
-0.13693 -0.091653 0.397
-0.13757 -0.091653 0.397
-0.13857 -0.091884 0.398
-0.13922 -0.091884 0.398
-0.13987 -0.091884 0.398
-0.14051 -0.091884 0.398
-0.14116 -0.091884 0.398
-0.14181 -0.091884 0.398
-0.14246 -0.091884 0.398
-0.14311 -0.091884 0.398
-0.14376 -0.091884 0.398
-0.14441 -0.091884 0.398
-0.14578 -0.092346 0.4
-0.15905 -0.098118 0.425
-0.15974 -0.098118 0.425
-0.16044 -0.098118 0.425
-0.16265 -0.099041 0.429
-0.16334 -0.099041 0.429
-0.16481 -0.099503 0.431
-0.16589 -0.099734 0.432
-0.1666 -0.099734 0.432
-0.1673 -0.099734 0.432
-0.16801 -0.099734 0.432
-0.16871 -0.099734 0.432
-0.16942 -0.099734 0.432
-0.17012 -0.099734 0.432
-0.17122 -0.099964 0.433
-0.17192 -0.099964 0.433
-0.17263 -0.099964 0.433
-0.080081 -0.088813 0.382
-0.080492 -0.08858 0.381
-0.081113 -0.08858 0.381
-0.08152 -0.088348 0.38
-0.082139 -0.088348 0.38
-0.082758 -0.088348 0.38
-0.083158 -0.088115 0.379
-0.083555 -0.087883 0.378
-0.084171 -0.087883 0.378
-0.084338 -0.087418 0.376
-0.084725 -0.087185 0.375
-0.085336 -0.087185 0.375
-0.085489 -0.08672 0.373
-0.085866 -0.086488 0.372
-0.086472 -0.086488 0.372
-0.08661 -0.086023 0.37
-0.086978 -0.08579 0.369
-0.087579 -0.08579 0.369
-0.087702 -0.085325 0.367
-0.08806 -0.085093 0.366
-0.088656 -0.085093 0.366
-0.089009 -0.08486 0.365
-0.089358 -0.084628 0.364
-0.089952 -0.084628 0.364
-0.090296 -0.084395 0.363
-0.090637 -0.084163 0.362
-0.091227 -0.084163 0.362
-0.09131 -0.083698 0.36
-0.091641 -0.083465 0.359
-0.092226 -0.083465 0.359
-0.092553 -0.083233 0.358
-0.092876 -0.083 0.357
-0.093458 -0.083 0.357
-0.093776 -0.082768 0.356
-0.094092 -0.082535 0.355
-0.09467 -0.082535 0.355
-0.095249 -0.082535 0.355
-0.095557 -0.082303 0.354
-0.096134 -0.082303 0.354
-0.096711 -0.082303 0.354
-0.097013 -0.08207 0.353
-0.097588 -0.08207 0.353
-0.098164 -0.08207 0.353
-0.098739 -0.08207 0.353
-0.099314 -0.08207 0.353
-0.09989 -0.08207 0.353
-0.10046 -0.08207 0.353
-0.10075 -0.081838 0.352
-0.10133 -0.081838 0.352
-0.1019 -0.081838 0.352
-0.10247 -0.081838 0.352
-0.10305 -0.081838 0.352
-0.10362 -0.081838 0.352
-0.1042 -0.081838 0.352
-0.10477 -0.081838 0.352
-0.10534 -0.081838 0.352
-0.10592 -0.081838 0.352
-0.10679 -0.08207 0.353
-0.10737 -0.08207 0.353
-0.10794 -0.08207 0.353
-0.12754 -0.091603 0.394
-0.12819 -0.091603 0.394
-0.12883 -0.091603 0.394
-0.12947 -0.091603 0.394
-0.13044 -0.091835 0.395
-0.13109 -0.091835 0.395
-0.13173 -0.091835 0.395
-0.13271 -0.092068 0.396
-0.13335 -0.092068 0.396
-0.134 -0.092068 0.396
-0.13464 -0.092068 0.396
-0.13529 -0.092068 0.396
-0.13628 -0.0923 0.397
-0.13693 -0.0923 0.397
-0.13757 -0.0923 0.397
-0.13857 -0.092533 0.398
-0.13922 -0.092533 0.398
-0.13987 -0.092533 0.398
-0.14051 -0.092533 0.398
-0.14116 -0.092533 0.398
-0.14181 -0.092533 0.398
-0.14246 -0.092533 0.398
-0.14311 -0.092533 0.398
-0.14376 -0.092533 0.398
-0.14441 -0.092533 0.398
-0.14578 -0.092998 0.4
-0.16119 -0.099275 0.427
-0.16189 -0.099275 0.427
-0.16258 -0.099275 0.427
-0.16404 -0.09974 0.429
-0.16551 -0.10021 0.431
-0.16621 -0.10021 0.431
-0.16692 -0.10021 0.431
-0.16762 -0.10021 0.431
-0.16871 -0.10044 0.432
-0.16942 -0.10044 0.432
-0.17012 -0.10044 0.432
-0.17122 -0.10067 0.433
-0.078623 -0.089903 0.384
-0.079042 -0.089669 0.383
-0.079667 -0.089669 0.383
-0.080081 -0.089435 0.382
-0.080492 -0.089201 0.381
-0.081113 -0.089201 0.381
-0.08152 -0.088967 0.38
-0.082139 -0.088967 0.38
-0.082758 -0.088967 0.38
-0.083158 -0.088733 0.379
-0.083334 -0.088265 0.377
-0.083948 -0.088265 0.377
-0.084338 -0.08803 0.376
-0.084499 -0.087562 0.374
-0.085109 -0.087562 0.374
-0.085489 -0.087328 0.373
-0.085635 -0.08686 0.371
-0.08624 -0.08686 0.371
-0.08661 -0.086626 0.37
-0.086742 -0.086157 0.368
-0.087342 -0.086157 0.368
-0.087463 -0.085689 0.366
-0.087819 -0.085455 0.365
-0.088414 -0.085455 0.365
-0.088765 -0.085221 0.364
-0.089113 -0.084987 0.363
-0.089704 -0.084987 0.363
-0.090047 -0.084753 0.362
-0.090387 -0.084519 0.361
-0.090975 -0.084519 0.361
-0.09131 -0.084284 0.36
-0.091641 -0.08405 0.359
-0.092226 -0.08405 0.359
-0.092553 -0.083816 0.358
-0.092876 -0.083582 0.357
-0.093458 -0.083582 0.357
-0.093776 -0.083348 0.356
-0.094092 -0.083114 0.355
-0.09467 -0.083114 0.355
-0.09498 -0.08288 0.354
-0.095557 -0.08288 0.354
-0.096134 -0.08288 0.354
-0.096438 -0.082646 0.353
-0.097013 -0.082646 0.353
-0.097588 -0.082646 0.353
-0.098164 -0.082646 0.353
-0.098739 -0.082646 0.353
-0.099314 -0.082646 0.353
-0.099607 -0.082411 0.352
-0.10018 -0.082411 0.352
-0.10075 -0.082411 0.352
-0.10133 -0.082411 0.352
-0.1019 -0.082411 0.352
-0.10247 -0.082411 0.352
-0.10305 -0.082411 0.352
-0.10362 -0.082411 0.352
-0.1042 -0.082411 0.352
-0.10477 -0.082411 0.352
-0.10534 -0.082411 0.352
-0.10592 -0.082411 0.352
-0.10649 -0.082411 0.352
-0.10706 -0.082411 0.352
-0.10764 -0.082411 0.352
-0.12819 -0.092245 0.394
-0.12883 -0.092245 0.394
-0.12947 -0.092245 0.394
-0.13044 -0.092479 0.395
-0.13109 -0.092479 0.395
-0.13173 -0.092479 0.395
-0.13271 -0.092713 0.396
-0.13335 -0.092713 0.396
-0.134 -0.092713 0.396
-0.13464 -0.092713 0.396
-0.13529 -0.092713 0.396
-0.13628 -0.092947 0.397
-0.13693 -0.092947 0.397
-0.13757 -0.092947 0.397
-0.13857 -0.093181 0.398
-0.13922 -0.093181 0.398
-0.13987 -0.093181 0.398
-0.14051 -0.093181 0.398
-0.14116 -0.093181 0.398
-0.14181 -0.093181 0.398
-0.14246 -0.093181 0.398
-0.14311 -0.093181 0.398
-0.14376 -0.093181 0.398
-0.14441 -0.093181 0.398
-0.14578 -0.093649 0.4
-0.16119 -0.099971 0.427
-0.16189 -0.099971 0.427
-0.16258 -0.099971 0.427
-0.16404 -0.10044 0.429
-0.16551 -0.10091 0.431
-0.16621 -0.10091 0.431
-0.16692 -0.10091 0.431
-0.16762 -0.10091 0.431
-0.16871 -0.10114 0.432
-0.16942 -0.10114 0.432
-0.17012 -0.10114 0.432
-0.17122 -0.10138 0.433
-0.077573 -0.090765 0.385
-0.0782 -0.090765 0.385
-0.078623 -0.090529 0.384
-0.078836 -0.090058 0.382
-0.079459 -0.090058 0.382
-0.080081 -0.090058 0.382
-0.080492 -0.089822 0.381
-0.081113 -0.089822 0.381
-0.08152 -0.089586 0.38
-0.082139 -0.089586 0.38
-0.082758 -0.089586 0.38
-0.083158 -0.08935 0.379
-0.083334 -0.088879 0.377
-0.083948 -0.088879 0.377
-0.084338 -0.088643 0.376
-0.084499 -0.088172 0.374
-0.085109 -0.088172 0.374
-0.085489 -0.087936 0.373
-0.085635 -0.087464 0.371
-0.08624 -0.087464 0.371
-0.08661 -0.087228 0.37
-0.086742 -0.086757 0.368
-0.087342 -0.086757 0.368
-0.087463 -0.086285 0.366
-0.087819 -0.08605 0.365
-0.088414 -0.08605 0.365
-0.088765 -0.085814 0.364
-0.089113 -0.085578 0.363
-0.089704 -0.085578 0.363
-0.090047 -0.085342 0.362
-0.090387 -0.085107 0.361
-0.090975 -0.085107 0.361
-0.09131 -0.084871 0.36
-0.091641 -0.084635 0.359
-0.092226 -0.084635 0.359
-0.092553 -0.084399 0.358
-0.092876 -0.084164 0.357
-0.093458 -0.084164 0.357
-0.093776 -0.083928 0.356
-0.094092 -0.083692 0.355
-0.09467 -0.083692 0.355
-0.09498 -0.083456 0.354
-0.095557 -0.083456 0.354
-0.096134 -0.083456 0.354
-0.096438 -0.083221 0.353
-0.097013 -0.083221 0.353
-0.097588 -0.083221 0.353
-0.098164 -0.083221 0.353
-0.098739 -0.083221 0.353
-0.099314 -0.083221 0.353
-0.099607 -0.082985 0.352
-0.10018 -0.082985 0.352
-0.10075 -0.082985 0.352
-0.10133 -0.082985 0.352
-0.1019 -0.082985 0.352
-0.10247 -0.082985 0.352
-0.10305 -0.082985 0.352
-0.10362 -0.082985 0.352
-0.1042 -0.082985 0.352
-0.10477 -0.082985 0.352
-0.10534 -0.082985 0.352
-0.10592 -0.082985 0.352
-0.10649 -0.082985 0.352
-0.10706 -0.082985 0.352
-0.10764 -0.082985 0.352
-0.12819 -0.092887 0.394
-0.12883 -0.092887 0.394
-0.12947 -0.092887 0.394
-0.13044 -0.093122 0.395
-0.13109 -0.093122 0.395
-0.13173 -0.093122 0.395
-0.13237 -0.093122 0.395
-0.13302 -0.093122 0.395
-0.134 -0.093358 0.396
-0.13464 -0.093358 0.396
-0.13529 -0.093358 0.396
-0.13628 -0.093594 0.397
-0.13693 -0.093594 0.397
-0.13757 -0.093594 0.397
-0.13857 -0.09383 0.398
-0.13922 -0.09383 0.398
-0.13987 -0.09383 0.398
-0.14051 -0.09383 0.398
-0.14116 -0.09383 0.398
-0.14181 -0.09383 0.398
-0.14246 -0.09383 0.398
-0.14311 -0.09383 0.398
-0.14376 -0.09383 0.398
-0.14441 -0.09383 0.398
-0.14542 -0.094065 0.399
-0.16006 -0.099959 0.424
-0.16075 -0.099959 0.424
-0.16144 -0.099959 0.424
-0.16366 -0.1009 0.428
-0.16551 -0.10161 0.431
-0.16621 -0.10161 0.431
-0.16692 -0.10161 0.431
-0.16762 -0.10161 0.431
-0.16871 -0.10185 0.432
-0.16942 -0.10185 0.432
-0.17012 -0.10185 0.432
-0.17122 -0.10208 0.433
-0.077573 -0.091392 0.385
-0.0782 -0.091392 0.385
-0.078828 -0.091392 0.385
-0.078836 -0.09068 0.382
-0.079459 -0.09068 0.382
-0.080081 -0.09068 0.382
-0.080492 -0.090443 0.381
-0.081113 -0.090443 0.381
-0.08152 -0.090205 0.38
-0.082139 -0.090205 0.38
-0.082758 -0.090205 0.38
-0.083158 -0.089968 0.379
-0.083334 -0.089493 0.377
-0.083948 -0.089493 0.377
-0.084338 -0.089256 0.376
-0.084499 -0.088781 0.374
-0.085109 -0.088781 0.374
-0.085489 -0.088543 0.373
-0.085635 -0.088069 0.371
-0.08624 -0.088069 0.371
-0.086376 -0.087594 0.369
-0.086506 -0.087119 0.367
-0.087104 -0.087119 0.367
-0.087463 -0.086882 0.366
-0.087819 -0.086644 0.365
-0.088414 -0.086644 0.365
-0.088765 -0.086407 0.364
-0.089113 -0.08617 0.363
-0.089704 -0.08617 0.363
-0.090047 -0.085932 0.362
-0.090387 -0.085695 0.361
-0.090975 -0.085695 0.361
-0.09131 -0.085458 0.36
-0.091641 -0.08522 0.359
-0.092226 -0.08522 0.359
-0.092553 -0.084983 0.358
-0.092876 -0.084745 0.357
-0.093458 -0.084745 0.357
-0.093776 -0.084508 0.356
-0.094092 -0.084271 0.355
-0.09467 -0.084271 0.355
-0.09498 -0.084033 0.354
-0.095557 -0.084033 0.354
-0.096134 -0.084033 0.354
-0.096438 -0.083796 0.353
-0.097013 -0.083796 0.353
-0.097588 -0.083796 0.353
-0.098164 -0.083796 0.353
-0.098459 -0.083558 0.352
-0.099033 -0.083558 0.352
-0.099607 -0.083558 0.352
-0.10018 -0.083558 0.352
-0.10075 -0.083558 0.352
-0.10133 -0.083558 0.352
-0.1019 -0.083558 0.352
-0.10247 -0.083558 0.352
-0.10305 -0.083558 0.352
-0.10362 -0.083558 0.352
-0.1042 -0.083558 0.352
-0.10477 -0.083558 0.352
-0.10534 -0.083558 0.352
-0.10592 -0.083558 0.352
-0.10649 -0.083558 0.352
-0.10706 -0.083558 0.352
-0.10764 -0.083558 0.352
-0.10852 -0.083796 0.353
-0.10909 -0.083796 0.353
-0.12819 -0.093529 0.394
-0.12883 -0.093529 0.394
-0.12947 -0.093529 0.394
-0.13044 -0.093766 0.395
-0.13109 -0.093766 0.395
-0.13173 -0.093766 0.395
-0.13237 -0.093766 0.395
-0.13302 -0.093766 0.395
-0.134 -0.094003 0.396
-0.13498 -0.094241 0.397
-0.13563 -0.094241 0.397
-0.13628 -0.094241 0.397
-0.13693 -0.094241 0.397
-0.13757 -0.094241 0.397
-0.13857 -0.094478 0.398
-0.13922 -0.094478 0.398
-0.13987 -0.094478 0.398
-0.14051 -0.094478 0.398
-0.14116 -0.094478 0.398
-0.14181 -0.094478 0.398
-0.14246 -0.094478 0.398
-0.14311 -0.094478 0.398
-0.14376 -0.094478 0.398
-0.14441 -0.094478 0.398
-0.14542 -0.094715 0.399
-0.14717 -0.095428 0.402
-0.14782 -0.095428 0.402
-0.16006 -0.10065 0.424
-0.16075 -0.10065 0.424
-0.16144 -0.10065 0.424
-0.16328 -0.10136 0.427
-0.16513 -0.10207 0.43
-0.16583 -0.10207 0.43
-0.1673 -0.10255 0.432
-0.16801 -0.10255 0.432
-0.16871 -0.10255 0.432
-0.16981 -0.10279 0.433
-0.17051 -0.10279 0.433
-0.077573 -0.092019 0.385
-0.0782 -0.092019 0.385
-0.078828 -0.092019 0.385
-0.078836 -0.091302 0.382
-0.079459 -0.091302 0.382
-0.080081 -0.091302 0.382
-0.080492 -0.091063 0.381
-0.081113 -0.091063 0.381
-0.08152 -0.090824 0.38
-0.082139 -0.090824 0.38
-0.082758 -0.090824 0.38
-0.083158 -0.090585 0.379
-0.083334 -0.090107 0.377
-0.083948 -0.090107 0.377
-0.084338 -0.089868 0.376
-0.084499 -0.08939 0.374
-0.085109 -0.08939 0.374
-0.08526 -0.088912 0.372
-0.085404 -0.088434 0.37
-0.085542 -0.087956 0.368
-0.086142 -0.087956 0.368
-0.086506 -0.087717 0.367
-0.087104 -0.087717 0.367
-0.087463 -0.087478 0.366
-0.087579 -0.087 0.364
-0.088172 -0.087 0.364
-0.088765 -0.087 0.364
-0.089113 -0.086761 0.363
-0.089704 -0.086761 0.363
-0.090047 -0.086522 0.362
-0.090136 -0.086044 0.36
-0.090723 -0.086044 0.36
-0.09131 -0.086044 0.36
-0.091641 -0.085805 0.359
-0.092226 -0.085805 0.359
-0.092553 -0.085566 0.358
-0.092876 -0.085327 0.357
-0.093458 -0.085327 0.357
-0.093776 -0.085088 0.356
-0.094092 -0.084849 0.355
-0.09467 -0.084849 0.355
-0.09498 -0.08461 0.354
-0.095557 -0.08461 0.354
-0.096134 -0.08461 0.354
-0.096438 -0.084371 0.353
-0.097013 -0.084371 0.353
-0.097588 -0.084371 0.353
-0.098164 -0.084371 0.353
-0.098459 -0.084132 0.352
-0.099033 -0.084132 0.352
-0.099607 -0.084132 0.352
-0.10018 -0.084132 0.352
-0.10075 -0.084132 0.352
-0.10133 -0.084132 0.352
-0.1019 -0.084132 0.352
-0.10247 -0.084132 0.352
-0.10305 -0.084132 0.352
-0.10362 -0.084132 0.352
-0.1042 -0.084132 0.352
-0.10477 -0.084132 0.352
-0.10534 -0.084132 0.352
-0.10592 -0.084132 0.352
-0.10649 -0.084132 0.352
-0.10706 -0.084132 0.352
-0.10764 -0.084132 0.352
-0.10852 -0.084371 0.353
-0.10909 -0.084371 0.353
-0.1298 -0.094409 0.395
-0.13044 -0.094409 0.395
-0.13109 -0.094409 0.395
-0.13173 -0.094409 0.395
-0.13271 -0.094648 0.396
-0.13335 -0.094648 0.396
-0.134 -0.094648 0.396
-0.13498 -0.094887 0.397
-0.13563 -0.094887 0.397
-0.13628 -0.094887 0.397
-0.13693 -0.094887 0.397
-0.13757 -0.094887 0.397
-0.13857 -0.095127 0.398
-0.13922 -0.095127 0.398
-0.13987 -0.095127 0.398
-0.14051 -0.095127 0.398
-0.14116 -0.095127 0.398
-0.14181 -0.095127 0.398
-0.14246 -0.095127 0.398
-0.14311 -0.095127 0.398
-0.14376 -0.095127 0.398
-0.14441 -0.095127 0.398
-0.14542 -0.095366 0.399
-0.14717 -0.096083 0.402
-0.14782 -0.096083 0.402
-0.16258 -0.10206 0.427
-0.16328 -0.10206 0.427
-0.16513 -0.10278 0.43
-0.16583 -0.10278 0.43
-0.1691 -0.10349 0.433
-0.16981 -0.10349 0.433
-0.17051 -0.10349 0.433
-0.080291 -0.092165 0.383
-0.080704 -0.091925 0.382
-0.081326 -0.091925 0.382
-0.081734 -0.091684 0.381
-0.082139 -0.091443 0.38
-0.082758 -0.091443 0.38
-0.083158 -0.091203 0.379
-0.083334 -0.090722 0.377
-0.083948 -0.090722 0.377
-0.084338 -0.090481 0.376
-0.084499 -0.09 0.374
-0.085109 -0.09 0.374
-0.08526 -0.089518 0.372
-0.085404 -0.089037 0.37
-0.085542 -0.088556 0.368
-0.086142 -0.088556 0.368
-0.086506 -0.088315 0.367
-0.087104 -0.088315 0.367
-0.087463 -0.088074 0.366
-0.087579 -0.087593 0.364
-0.088172 -0.087593 0.364
-0.088765 -0.087593 0.364
-0.089113 -0.087353 0.363
-0.089704 -0.087353 0.363
-0.090047 -0.087112 0.362
-0.090136 -0.086631 0.36
-0.090723 -0.086631 0.36
-0.09131 -0.086631 0.36
-0.091641 -0.08639 0.359
-0.092226 -0.08639 0.359
-0.092553 -0.086149 0.358
-0.092876 -0.085909 0.357
-0.093458 -0.085909 0.357
-0.093776 -0.085668 0.356
-0.094092 -0.085427 0.355
-0.09467 -0.085427 0.355
-0.09498 -0.085187 0.354
-0.095557 -0.085187 0.354
-0.096134 -0.085187 0.354
-0.096438 -0.084946 0.353
-0.097013 -0.084946 0.353
-0.097588 -0.084946 0.353
-0.098164 -0.084946 0.353
-0.098459 -0.084706 0.352
-0.099033 -0.084706 0.352
-0.099607 -0.084706 0.352
-0.10018 -0.084706 0.352
-0.10075 -0.084706 0.352
-0.10133 -0.084706 0.352
-0.1019 -0.084706 0.352
-0.10247 -0.084706 0.352
-0.10305 -0.084706 0.352
-0.10362 -0.084706 0.352
-0.1042 -0.084706 0.352
-0.10477 -0.084706 0.352
-0.10534 -0.084706 0.352
-0.10592 -0.084706 0.352
-0.10649 -0.084706 0.352
-0.10706 -0.084706 0.352
-0.10764 -0.084706 0.352
-0.10821 -0.084706 0.352
-0.10879 -0.084706 0.352
-0.10967 -0.084946 0.353
-0.1298 -0.095053 0.395
-0.13044 -0.095053 0.395
-0.13109 -0.095053 0.395
-0.13173 -0.095053 0.395
-0.13271 -0.095294 0.396
-0.13335 -0.095294 0.396
-0.134 -0.095294 0.396
-0.13498 -0.095534 0.397
-0.13563 -0.095534 0.397
-0.13628 -0.095534 0.397
-0.13693 -0.095534 0.397
-0.13757 -0.095534 0.397
-0.13857 -0.095775 0.398
-0.13922 -0.095775 0.398
-0.13987 -0.095775 0.398
-0.14051 -0.095775 0.398
-0.14116 -0.095775 0.398
-0.14181 -0.095775 0.398
-0.14246 -0.095775 0.398
-0.14311 -0.095775 0.398
-0.14376 -0.095775 0.398
-0.14441 -0.095775 0.398
-0.14505 -0.095775 0.398
-0.1468 -0.096497 0.401
-0.14746 -0.096497 0.401
-0.14885 -0.096978 0.403
-0.1495 -0.096978 0.403
-0.16258 -0.10275 0.427
-0.16328 -0.10275 0.427
-0.16513 -0.10347 0.43
-0.16583 -0.10347 0.43
-0.077976 -0.093758 0.387
-0.078606 -0.093758 0.387
-0.079237 -0.093758 0.387
-0.080291 -0.092789 0.383
-0.080704 -0.092547 0.382
-0.081326 -0.092547 0.382
-0.081734 -0.092305 0.381
-0.082139 -0.092063 0.38
-0.082758 -0.092063 0.38
-0.083158 -0.09182 0.379
-0.083334 -0.091336 0.377
-0.083948 -0.091336 0.377
-0.084338 -0.091093 0.376
-0.084273 -0.090367 0.373
-0.084881 -0.090367 0.373
-0.08526 -0.090124 0.372
-0.085404 -0.08964 0.37
-0.085542 -0.089155 0.368
-0.086142 -0.089155 0.368
-0.08627 -0.088671 0.366
-0.08663 -0.088429 0.365
-0.087224 -0.088429 0.365
-0.087579 -0.088186 0.364
-0.08793 -0.087944 0.363
-0.088521 -0.087944 0.363
-0.088867 -0.087702 0.362
-0.08921 -0.087459 0.361
-0.089799 -0.087459 0.361
-0.090136 -0.087217 0.36
-0.090471 -0.086975 0.359
-0.091056 -0.086975 0.359
-0.091386 -0.086733 0.358
-0.091969 -0.086733 0.358
-0.092294 -0.08649 0.357
-0.092876 -0.08649 0.357
-0.093458 -0.08649 0.357
-0.093513 -0.086006 0.355
-0.094092 -0.086006 0.355
-0.09467 -0.086006 0.355
-0.09498 -0.085764 0.354
-0.095557 -0.085764 0.354
-0.096134 -0.085764 0.354
-0.096438 -0.085521 0.353
-0.097013 -0.085521 0.353
-0.097588 -0.085521 0.353
-0.098164 -0.085521 0.353
-0.098459 -0.085279 0.352
-0.099033 -0.085279 0.352
-0.099607 -0.085279 0.352
-0.10018 -0.085279 0.352
-0.10075 -0.085279 0.352
-0.10133 -0.085279 0.352
-0.1019 -0.085279 0.352
-0.10247 -0.085279 0.352
-0.10305 -0.085279 0.352
-0.10362 -0.085279 0.352
-0.1042 -0.085279 0.352
-0.10477 -0.085279 0.352
-0.10534 -0.085279 0.352
-0.10592 -0.085279 0.352
-0.10649 -0.085279 0.352
-0.10706 -0.085279 0.352
-0.10764 -0.085279 0.352
-0.10821 -0.085279 0.352
-0.10879 -0.085279 0.352
-0.10936 -0.085279 0.352
-0.13142 -0.095939 0.396
-0.13206 -0.095939 0.396
-0.13271 -0.095939 0.396
-0.13335 -0.095939 0.396
-0.13434 -0.096181 0.397
-0.13498 -0.096181 0.397
-0.13563 -0.096181 0.397
-0.13628 -0.096181 0.397
-0.13693 -0.096181 0.397
-0.13792 -0.096423 0.398
-0.13857 -0.096423 0.398
-0.13922 -0.096423 0.398
-0.13987 -0.096423 0.398
-0.14051 -0.096423 0.398
-0.14116 -0.096423 0.398
-0.14181 -0.096423 0.398
-0.14246 -0.096423 0.398
-0.14311 -0.096423 0.398
-0.14412 -0.096666 0.399
-0.14441 -0.096423 0.398
-0.14505 -0.096423 0.398
-0.1468 -0.09715 0.401
-0.14746 -0.09715 0.401
-0.14885 -0.097635 0.403
-0.1495 -0.097635 0.403
-0.077976 -0.094389 0.387
-0.078606 -0.094389 0.387
-0.079237 -0.094389 0.387
-0.079868 -0.094389 0.387
-0.0805 -0.093657 0.384
-0.080915 -0.093413 0.383
-0.081539 -0.093413 0.383
-0.081949 -0.09317 0.382
-0.082355 -0.092926 0.381
-0.082976 -0.092926 0.381
-0.083158 -0.092438 0.379
-0.083555 -0.092194 0.378
-0.084171 -0.092194 0.378
-0.084338 -0.091706 0.376
-0.084273 -0.090974 0.373
-0.084881 -0.090974 0.373
-0.08526 -0.090731 0.372
-0.085404 -0.090243 0.37
-0.085542 -0.089755 0.368
-0.086142 -0.089755 0.368
-0.08627 -0.089267 0.366
-0.08663 -0.089023 0.365
-0.087224 -0.089023 0.365
-0.087579 -0.088779 0.364
-0.08793 -0.088535 0.363
-0.088521 -0.088535 0.363
-0.088867 -0.088292 0.362
-0.08921 -0.088048 0.361
-0.089799 -0.088048 0.361
-0.090136 -0.087804 0.36
-0.090471 -0.08756 0.359
-0.091056 -0.08756 0.359
-0.091386 -0.087316 0.358
-0.091713 -0.087072 0.357
-0.092294 -0.087072 0.357
-0.092616 -0.086828 0.356
-0.092934 -0.086584 0.355
-0.093513 -0.086584 0.355
-0.094092 -0.086584 0.355
-0.09467 -0.086584 0.355
-0.09498 -0.08634 0.354
-0.095557 -0.08634 0.354
-0.096134 -0.08634 0.354
-0.096438 -0.086096 0.353
-0.097013 -0.086096 0.353
-0.097588 -0.086096 0.353
-0.098164 -0.086096 0.353
-0.098459 -0.085853 0.352
-0.099033 -0.085853 0.352
-0.099607 -0.085853 0.352
-0.10018 -0.085853 0.352
-0.10075 -0.085853 0.352
-0.10133 -0.085853 0.352
-0.1019 -0.085853 0.352
-0.10247 -0.085853 0.352
-0.10305 -0.085853 0.352
-0.10362 -0.085853 0.352
-0.1042 -0.085853 0.352
-0.10477 -0.085853 0.352
-0.10534 -0.085853 0.352
-0.10592 -0.085853 0.352
-0.10649 -0.085853 0.352
-0.10706 -0.085853 0.352
-0.10764 -0.085853 0.352
-0.10821 -0.085853 0.352
-0.10879 -0.085853 0.352
-0.10936 -0.085853 0.352
-0.13142 -0.096584 0.396
-0.13206 -0.096584 0.396
-0.13304 -0.096828 0.397
-0.13369 -0.096828 0.397
-0.13434 -0.096828 0.397
-0.13498 -0.096828 0.397
-0.13563 -0.096828 0.397
-0.13628 -0.096828 0.397
-0.13693 -0.096828 0.397
-0.13792 -0.097072 0.398
-0.13857 -0.097072 0.398
-0.13922 -0.097072 0.398
-0.13987 -0.097072 0.398
-0.14087 -0.097316 0.399
-0.14152 -0.097316 0.399
-0.14217 -0.097316 0.399
-0.14282 -0.097316 0.399
-0.14347 -0.097316 0.399
-0.14412 -0.097316 0.399
-0.14477 -0.097316 0.399
-0.14542 -0.097316 0.399
-0.1468 -0.097804 0.401
-0.14746 -0.097804 0.401
-0.14885 -0.098291 0.403
-0.1495 -0.098291 0.403
-0.15128 -0.099023 0.406
-0.15306 -0.099755 0.409
-0.15373 -0.099755 0.409
-0.078177 -0.095265 0.388
-0.07881 -0.095265 0.388
-0.079237 -0.09502 0.387
-0.079868 -0.09502 0.387
-0.08071 -0.094529 0.385
-0.081126 -0.094283 0.384
-0.081752 -0.094283 0.384
-0.082163 -0.094037 0.383
-0.082571 -0.093792 0.382
-0.083194 -0.093792 0.382
-0.083378 -0.093301 0.38
-0.083555 -0.09281 0.378
-0.084171 -0.09281 0.378
-0.084338 -0.092319 0.376
-0.084499 -0.091828 0.374
-0.085109 -0.091828 0.374
-0.08526 -0.091337 0.372
-0.085404 -0.090846 0.37
-0.085542 -0.090355 0.368
-0.086142 -0.090355 0.368
-0.08627 -0.089863 0.366
-0.08663 -0.089618 0.365
-0.087224 -0.089618 0.365
-0.087579 -0.089372 0.364
-0.08793 -0.089127 0.363
-0.088521 -0.089127 0.363
-0.088867 -0.088881 0.362
-0.08921 -0.088636 0.361
-0.089799 -0.088636 0.361
-0.090136 -0.08839 0.36
-0.090471 -0.088145 0.359
-0.091056 -0.088145 0.359
-0.091386 -0.087899 0.358
-0.091713 -0.087654 0.357
-0.092294 -0.087654 0.357
-0.092616 -0.087408 0.356
-0.092934 -0.087163 0.355
-0.093513 -0.087163 0.355
-0.094092 -0.087163 0.355
-0.09467 -0.087163 0.355
-0.09498 -0.086917 0.354
-0.095557 -0.086917 0.354
-0.096134 -0.086917 0.354
-0.096438 -0.086672 0.353
-0.097013 -0.086672 0.353
-0.097588 -0.086672 0.353
-0.098164 -0.086672 0.353
-0.098459 -0.086426 0.352
-0.099033 -0.086426 0.352
-0.099607 -0.086426 0.352
-0.10018 -0.086426 0.352
-0.10075 -0.086426 0.352
-0.10133 -0.086426 0.352
-0.1019 -0.086426 0.352
-0.10247 -0.086426 0.352
-0.10305 -0.086426 0.352
-0.10362 -0.086426 0.352
-0.1042 -0.086426 0.352
-0.10477 -0.086426 0.352
-0.10534 -0.086426 0.352
-0.10592 -0.086426 0.352
-0.10649 -0.086426 0.352
-0.10706 -0.086426 0.352
-0.10764 -0.086426 0.352
-0.10821 -0.086426 0.352
-0.10879 -0.086426 0.352
-0.10936 -0.086426 0.352
-0.13142 -0.097229 0.396
-0.13206 -0.097229 0.396
-0.13304 -0.097475 0.397
-0.13369 -0.097475 0.397
-0.13434 -0.097475 0.397
-0.13498 -0.097475 0.397
-0.13563 -0.097475 0.397
-0.13628 -0.097475 0.397
-0.13693 -0.097475 0.397
-0.13792 -0.09772 0.398
-0.13857 -0.09772 0.398
-0.13922 -0.09772 0.398
-0.13987 -0.09772 0.398
-0.14087 -0.097966 0.399
-0.14152 -0.097966 0.399
-0.14217 -0.097966 0.399
-0.14282 -0.097966 0.399
-0.14347 -0.097966 0.399
-0.14412 -0.097966 0.399
-0.14477 -0.097966 0.399
-0.14542 -0.097966 0.399
-0.14644 -0.098211 0.4
-0.14709 -0.098211 0.4
-0.14848 -0.098702 0.402
-0.14913 -0.098702 0.402
-0.15128 -0.099685 0.406
-0.15306 -0.10042 0.409
-0.15373 -0.10042 0.409
-0.077945 -0.096392 0.39
-0.078177 -0.095897 0.388
-0.07881 -0.095897 0.388
-0.079237 -0.09565 0.387
-0.079868 -0.09565 0.387
-0.080499 -0.09565 0.387
-0.08071 -0.095156 0.385
-0.081126 -0.094909 0.384
-0.081752 -0.094909 0.384
-0.082163 -0.094661 0.383
-0.082571 -0.094414 0.382
-0.083194 -0.094414 0.382
-0.083378 -0.09392 0.38
-0.083555 -0.093426 0.378
-0.084171 -0.093426 0.378
-0.084338 -0.092931 0.376
-0.084499 -0.092437 0.374
-0.085109 -0.092437 0.374
-0.08526 -0.091943 0.372
-0.085174 -0.091201 0.369
-0.085542 -0.090954 0.368
-0.086142 -0.090954 0.368
-0.08627 -0.09046 0.366
-0.086392 -0.089965 0.364
-0.086985 -0.089965 0.364
-0.087579 -0.089965 0.364
-0.08793 -0.089718 0.363
-0.088521 -0.089718 0.363
-0.088867 -0.089471 0.362
-0.08921 -0.089224 0.361
-0.089799 -0.089224 0.361
-0.090136 -0.088977 0.36
-0.090471 -0.08873 0.359
-0.091056 -0.08873 0.359
-0.091386 -0.088483 0.358
-0.091713 -0.088235 0.357
-0.092294 -0.088235 0.357
-0.092616 -0.087988 0.356
-0.092934 -0.087741 0.355
-0.093513 -0.087741 0.355
-0.094092 -0.087741 0.355
-0.09467 -0.087741 0.355
-0.09498 -0.087494 0.354
-0.095287 -0.087247 0.353
-0.095863 -0.087247 0.353
-0.096438 -0.087247 0.353
-0.097013 -0.087247 0.353
-0.097588 -0.087247 0.353
-0.098164 -0.087247 0.353
-0.098459 -0.087 0.352
-0.099033 -0.087 0.352
-0.099607 -0.087 0.352
-0.10018 -0.087 0.352
-0.10075 -0.087 0.352
-0.10133 -0.087 0.352
-0.1019 -0.087 0.352
-0.10247 -0.087 0.352
-0.10305 -0.087 0.352
-0.10362 -0.087 0.352
-0.1042 -0.087 0.352
-0.10477 -0.087 0.352
-0.10534 -0.087 0.352
-0.10592 -0.087 0.352
-0.10649 -0.087 0.352
-0.10706 -0.087 0.352
-0.10764 -0.087 0.352
-0.10821 -0.087 0.352
-0.10879 -0.087 0.352
-0.10936 -0.087 0.352
-0.13175 -0.098122 0.397
-0.1324 -0.098122 0.397
-0.13304 -0.098122 0.397
-0.13369 -0.098122 0.397
-0.13434 -0.098122 0.397
-0.13498 -0.098122 0.397
-0.13563 -0.098122 0.397
-0.13662 -0.098369 0.398
-0.13727 -0.098369 0.398
-0.13792 -0.098369 0.398
-0.13857 -0.098369 0.398
-0.13922 -0.098369 0.398
-0.14022 -0.098616 0.399
-0.14087 -0.098616 0.399
-0.14152 -0.098616 0.399
-0.14217 -0.098616 0.399
-0.14282 -0.098616 0.399
-0.14347 -0.098616 0.399
-0.14412 -0.098616 0.399
-0.14477 -0.098616 0.399
-0.14542 -0.098616 0.399
-0.14644 -0.098863 0.4
-0.14709 -0.098863 0.4
-0.14848 -0.099357 0.402
-0.14913 -0.099357 0.402
-0.077945 -0.097027 0.39
-0.078379 -0.096778 0.389
-0.079013 -0.096778 0.389
-0.079442 -0.096529 0.388
-0.079868 -0.096281 0.387
-0.080499 -0.096281 0.387
-0.081129 -0.096281 0.387
-0.081549 -0.096032 0.386
-0.082178 -0.096032 0.386
-0.082378 -0.095534 0.384
-0.083004 -0.095534 0.384
-0.083629 -0.095534 0.384
-0.083816 -0.095037 0.382
-0.083776 -0.09429 0.379
-0.084393 -0.09429 0.379
-0.084563 -0.093793 0.377
-0.084499 -0.093046 0.374
-0.085109 -0.093046 0.374
-0.08526 -0.092549 0.372
-0.085174 -0.091802 0.369
-0.085542 -0.091554 0.368
-0.086142 -0.091554 0.368
-0.08627 -0.091056 0.366
-0.086392 -0.090559 0.364
-0.086985 -0.090559 0.364
-0.087579 -0.090559 0.364
-0.08793 -0.09031 0.363
-0.088521 -0.09031 0.363
-0.088867 -0.090061 0.362
-0.08921 -0.089812 0.361
-0.089799 -0.089812 0.361
-0.090136 -0.089563 0.36
-0.090471 -0.089315 0.359
-0.091056 -0.089315 0.359
-0.091386 -0.089066 0.358
-0.091713 -0.088817 0.357
-0.092294 -0.088817 0.357
-0.092616 -0.088568 0.356
-0.092934 -0.088319 0.355
-0.093513 -0.088319 0.355
-0.094092 -0.088319 0.355
-0.09467 -0.088319 0.355
-0.09498 -0.088071 0.354
-0.095287 -0.087822 0.353
-0.095863 -0.087822 0.353
-0.096438 -0.087822 0.353
-0.097013 -0.087822 0.353
-0.097588 -0.087822 0.353
-0.098164 -0.087822 0.353
-0.098459 -0.087573 0.352
-0.099033 -0.087573 0.352
-0.099607 -0.087573 0.352
-0.10018 -0.087573 0.352
-0.10075 -0.087573 0.352
-0.10133 -0.087573 0.352
-0.1019 -0.087573 0.352
-0.10247 -0.087573 0.352
-0.10305 -0.087573 0.352
-0.10362 -0.087573 0.352
-0.1042 -0.087573 0.352
-0.10477 -0.087573 0.352
-0.10534 -0.087573 0.352
-0.10592 -0.087573 0.352
-0.10649 -0.087573 0.352
-0.10706 -0.087573 0.352
-0.10764 -0.087573 0.352
-0.10821 -0.087573 0.352
-0.10879 -0.087573 0.352
-0.10936 -0.087573 0.352
-0.13175 -0.098769 0.397
-0.1324 -0.098769 0.397
-0.13304 -0.098769 0.397
-0.13369 -0.098769 0.397
-0.13434 -0.098769 0.397
-0.13498 -0.098769 0.397
-0.13563 -0.098769 0.397
-0.13628 -0.098769 0.397
-0.13727 -0.099017 0.398
-0.13792 -0.099017 0.398
-0.13857 -0.099017 0.398
-0.13922 -0.099017 0.398
-0.13987 -0.099017 0.398
-0.14087 -0.099266 0.399
-0.14152 -0.099266 0.399
-0.14217 -0.099266 0.399
-0.14282 -0.099266 0.399
-0.14347 -0.099266 0.399
-0.14412 -0.099266 0.399
-0.14477 -0.099266 0.399
-0.14542 -0.099266 0.399
-0.14644 -0.099515 0.4
-0.14709 -0.099515 0.4
-0.14811 -0.099764 0.401
-0.14913 -0.10001 0.402
-0.078544 -0.098414 0.393
-0.078782 -0.097913 0.391
-0.079419 -0.097913 0.391
-0.079851 -0.097662 0.39
-0.080281 -0.097412 0.389
-0.080915 -0.097412 0.389
-0.081339 -0.097162 0.388
-0.081971 -0.097162 0.388
-0.082604 -0.097162 0.388
-0.083021 -0.096911 0.387
-0.083652 -0.096911 0.387
-0.084065 -0.096661 0.386
-0.084036 -0.09591 0.383
-0.084218 -0.095409 0.381
-0.084839 -0.095409 0.381
-0.085011 -0.094908 0.379
-0.084951 -0.094157 0.376
-0.085564 -0.094157 0.376
-0.085489 -0.093405 0.373
-0.085404 -0.092654 0.37
-0.085542 -0.092153 0.368
-0.086142 -0.092153 0.368
-0.08627 -0.091652 0.366
-0.08663 -0.091402 0.365
-0.087224 -0.091402 0.365
-0.087579 -0.091152 0.364
-0.08793 -0.090901 0.363
-0.088521 -0.090901 0.363
-0.088867 -0.090651 0.362
-0.08921 -0.0904 0.361
-0.089799 -0.0904 0.361
-0.090136 -0.09015 0.36
-0.090471 -0.0899 0.359
-0.091056 -0.0899 0.359
-0.091386 -0.089649 0.358
-0.091713 -0.089399 0.357
-0.092294 -0.089399 0.357
-0.092616 -0.089148 0.356
-0.092934 -0.088898 0.355
-0.093513 -0.088898 0.355
-0.093826 -0.088647 0.354
-0.094403 -0.088647 0.354
-0.09498 -0.088647 0.354
-0.095287 -0.088397 0.353
-0.095863 -0.088397 0.353
-0.096438 -0.088397 0.353
-0.097013 -0.088397 0.353
-0.097588 -0.088397 0.353
-0.098164 -0.088397 0.353
-0.098459 -0.088147 0.352
-0.099033 -0.088147 0.352
-0.099607 -0.088147 0.352
-0.10018 -0.088147 0.352
-0.10075 -0.088147 0.352
-0.10133 -0.088147 0.352
-0.1019 -0.088147 0.352
-0.10247 -0.088147 0.352
-0.10305 -0.088147 0.352
-0.10362 -0.088147 0.352
-0.1042 -0.088147 0.352
-0.10477 -0.088147 0.352
-0.10534 -0.088147 0.352
-0.10592 -0.088147 0.352
-0.10649 -0.088147 0.352
-0.10706 -0.088147 0.352
-0.10764 -0.088147 0.352
-0.10821 -0.088147 0.352
-0.10879 -0.088147 0.352
-0.10936 -0.088147 0.352
-0.13013 -0.099165 0.396
-0.13077 -0.099165 0.396
-0.13142 -0.099165 0.396
-0.13206 -0.099165 0.396
-0.13304 -0.099415 0.397
-0.13369 -0.099415 0.397
-0.13434 -0.099415 0.397
-0.13498 -0.099415 0.397
-0.13563 -0.099415 0.397
-0.13628 -0.099415 0.397
-0.13693 -0.099415 0.397
-0.13757 -0.099415 0.397
-0.13857 -0.099666 0.398
-0.13922 -0.099666 0.398
-0.13987 -0.099666 0.398
-0.14051 -0.099666 0.398
-0.14116 -0.099666 0.398
-0.14217 -0.099916 0.399
-0.14282 -0.099916 0.399
-0.14347 -0.099916 0.399
-0.14412 -0.099916 0.399
-0.14477 -0.099916 0.399
-0.14578 -0.10017 0.4
-0.14644 -0.10017 0.4
-0.14709 -0.10017 0.4
-0.14811 -0.10042 0.401
-0.078544 -0.099054 0.393
-0.078782 -0.09855 0.391
-0.079419 -0.09855 0.391
-0.079851 -0.098298 0.39
-0.080281 -0.098046 0.389
-0.080915 -0.098046 0.389
-0.081339 -0.097794 0.388
-0.081971 -0.097794 0.388
-0.082604 -0.097794 0.388
-0.083021 -0.097542 0.387
-0.083652 -0.097542 0.387
-0.084065 -0.09729 0.386
-0.084036 -0.096534 0.383
-0.084218 -0.096029 0.381
-0.084839 -0.096029 0.381
-0.085011 -0.095525 0.379
-0.084951 -0.094769 0.376
-0.085564 -0.094769 0.376
-0.085489 -0.094013 0.373
-0.085404 -0.093257 0.37
-0.085542 -0.092753 0.368
-0.086142 -0.092753 0.368
-0.08627 -0.092249 0.366
-0.08663 -0.091997 0.365
-0.087224 -0.091997 0.365
-0.087579 -0.091745 0.364
-0.08793 -0.091493 0.363
-0.088521 -0.091493 0.363
-0.088867 -0.091241 0.362
-0.088963 -0.090736 0.36
-0.08955 -0.090736 0.36
-0.089886 -0.090484 0.359
-0.090471 -0.090484 0.359
-0.091056 -0.090484 0.359
-0.091386 -0.090232 0.358
-0.091713 -0.08998 0.357
-0.092294 -0.08998 0.357
-0.092616 -0.089728 0.356
-0.092934 -0.089476 0.355
-0.093513 -0.089476 0.355
-0.093826 -0.089224 0.354
-0.094403 -0.089224 0.354
-0.09498 -0.089224 0.354
-0.095287 -0.088972 0.353
-0.095863 -0.088972 0.353
-0.096438 -0.088972 0.353
-0.097013 -0.088972 0.353
-0.097588 -0.088972 0.353
-0.098164 -0.088972 0.353
-0.098459 -0.08872 0.352
