ply
format ascii 1.0
comment Created by Open3D
element vertex 2145
property double x
property double y
property double z
end_header
0.082755 0.11275 0.429
0.082056 0.11275 0.429
0.081357 0.11275 0.429
0.080658 0.11275 0.429
0.079958 0.11275 0.429
0.079259 0.11275 0.429
0.15071 0.099251 0.38
0.1501 0.099251 0.38
0.14908 0.09899 0.379
0.14846 0.09899 0.379
0.14785 0.09899 0.379
0.14723 0.09899 0.379
0.147 0.099251 0.38
0.14638 0.099251 0.38
0.14576 0.099251 0.38
0.14514 0.099251 0.38
0.14452 0.099251 0.38
0.1439 0.099251 0.38
0.14366 0.099513 0.381
0.14304 0.099513 0.381
0.14242 0.099513 0.381
0.1418 0.099513 0.381
0.14118 0.099513 0.381
0.14092 0.099774 0.382
0.1403 0.099774 0.382
0.13968 0.099774 0.382
0.13906 0.099774 0.382
0.13843 0.099774 0.382
0.13781 0.099774 0.382
0.13719 0.099774 0.382
0.13692 0.10003 0.383
0.1363 0.10003 0.383
0.13567 0.10003 0.383
0.1354 0.1003 0.384
0.13478 0.1003 0.384
0.1345 0.10056 0.385
0.13422 0.10082 0.386
0.13359 0.10082 0.386
0.13365 0.10134 0.388
0.13302 0.10134 0.388
0.13307 0.10186 0.39
0.13243 0.10186 0.39
0.1318 0.10186 0.39
0.13251 0.10291 0.394
0.13187 0.10291 0.394
0.13322 0.10447 0.4
0.13257 0.10447 0.4
0.13291 0.10526 0.403
0.13581 0.10918 0.418
0.13513 0.10918 0.418
0.13734 0.11153 0.427
0.13665 0.11153 0.427
0.13637 0.11362 0.435
0.13566 0.11362 0.435
0.13495 0.11362 0.435
0.13394 0.11336 0.434
0.13323 0.11336 0.434
0.13252 0.11336 0.434
0.13151 0.11309 0.433
0.13081 0.11309 0.433
0.1298 0.11283 0.432
0.1288 0.11257 0.431
0.12809 0.11257 0.431
0.1271 0.11231 0.43
0.1264 0.11231 0.43
0.1257 0.11231 0.43
0.12499 0.11231 0.43
0.12458 0.11257 0.431
0.12388 0.11257 0.431
0.12346 0.11283 0.432
0.12333 0.11336 0.434
0.12262 0.11336 0.434
0.12219 0.11362 0.435
0.12148 0.11362 0.435
0.12133 0.11414 0.437
0.1209 0.1144 0.438
0.12018 0.1144 0.438
0.11974 0.11466 0.439
0.11903 0.11466 0.439
0.11831 0.11466 0.439
0.11786 0.11492 0.44
0.11714 0.11492 0.44
0.11643 0.11492 0.44
0.11571 0.11492 0.44
0.11473 0.11466 0.439
0.11402 0.11466 0.439
0.1133 0.11466 0.439
0.11259 0.11466 0.439
0.11187 0.11466 0.439
0.11116 0.11466 0.439
0.11019 0.1144 0.438
0.10948 0.1144 0.438
0.10851 0.11414 0.437
0.10731 0.11362 0.435
0.1066 0.11362 0.435
0.10565 0.11336 0.434
0.10446 0.11283 0.432
0.10375 0.11283 0.432
0.10281 0.11257 0.431
0.10211 0.11257 0.431
0.10117 0.11231 0.43
0.10047 0.11231 0.43
0.099767 0.11231 0.43
0.098835 0.11205 0.429
0.098136 0.11205 0.429
0.097437 0.11205 0.429
0.096738 0.11205 0.429
0.096039 0.11205 0.429
0.09534 0.11205 0.429
0.09464 0.11205 0.429
0.093941 0.11205 0.429
0.093242 0.11205 0.429
0.092543 0.11205 0.429
0.091844 0.11205 0.429
0.091145 0.11205 0.429
0.090446 0.11205 0.429
0.089746 0.11205 0.429
0.089047 0.11205 0.429
0.088348 0.11205 0.429
0.087445 0.11179 0.428
0.086747 0.11179 0.428
0.08605 0.11179 0.428
0.085352 0.11179 0.428
0.084655 0.11179 0.428
0.084153 0.11205 0.429
0.083454 0.11205 0.429
0.082755 0.11205 0.429
0.082056 0.11205 0.429
0.081357 0.11205 0.429
0.080658 0.11205 0.429
0.079958 0.11205 0.429
0.079259 0.11205 0.429
0.078743 0.11231 0.43
0.078042 0.11231 0.43
0.15071 0.098632 0.38
0.1501 0.098632 0.38
0.14947 0.098632 0.38
0.14886 0.098632 0.38
0.14824 0.098632 0.38
0.14762 0.098632 0.38
0.147 0.098632 0.38
0.14638 0.098632 0.38
0.14576 0.098632 0.38
0.14514 0.098632 0.38
0.14452 0.098632 0.38
0.1439 0.098632 0.38
0.14366 0.098892 0.381
0.14304 0.098892 0.381
0.14242 0.098892 0.381
0.1418 0.098892 0.381
0.14155 0.099151 0.382
0.14092 0.099151 0.382
0.1403 0.099151 0.382
0.13968 0.099151 0.382
0.13906 0.099151 0.382
0.13843 0.099151 0.382
0.13817 0.099411 0.383
0.13755 0.099411 0.383
0.13692 0.099411 0.383
0.1363 0.099411 0.383
0.13567 0.099411 0.383
0.1354 0.099671 0.384
0.13478 0.099671 0.384
0.13485 0.10019 0.386
0.13457 0.10045 0.387
0.13394 0.10045 0.387
0.13365 0.10071 0.388
0.13302 0.10071 0.388
0.13307 0.10123 0.39
0.13311 0.10175 0.392
0.13248 0.10175 0.392
0.13284 0.10253 0.395
0.1322 0.10253 0.395
0.13322 0.10382 0.4
0.13257 0.10382 0.4
0.13291 0.1046 0.403
0.13451 0.10746 0.414
0.13384 0.10746 0.414
0.13574 0.10953 0.422
0.13505 0.10953 0.422
0.13627 0.11109 0.428
0.13557 0.11109 0.428
0.13582 0.11187 0.431
0.13512 0.11187 0.431
0.13473 0.11213 0.432
0.13402 0.11213 0.432
0.13301 0.11187 0.431
0.13231 0.11187 0.431
0.13161 0.11187 0.431
0.13151 0.11239 0.433
0.13081 0.11239 0.433
0.1298 0.11213 0.432
0.1288 0.11187 0.431
0.12809 0.11187 0.431
0.1271 0.11161 0.43
0.1264 0.11161 0.43
0.1257 0.11161 0.43
0.12499 0.11161 0.43
0.12458 0.11187 0.431
0.12388 0.11187 0.431
0.12346 0.11213 0.432
0.12333 0.11265 0.434
0.12234 0.11239 0.433
0.12163 0.11239 0.433
0.12093 0.11239 0.433
0.12078 0.11291 0.435
0.12034 0.11317 0.436
0.11963 0.11317 0.436
0.11947 0.11369 0.438
0.11875 0.11369 0.438
0.11831 0.11395 0.439
0.11759 0.11395 0.439
0.11688 0.11395 0.439
0.11616 0.11395 0.439
0.11545 0.11395 0.439
0.11473 0.11395 0.439
0.11402 0.11395 0.439
0.1133 0.11395 0.439
0.11233 0.11369 0.438
0.11162 0.11369 0.438
0.11065 0.11343 0.437
0.10969 0.11317 0.436
0.10898 0.11317 0.436
0.10802 0.11291 0.435
0.10681 0.11239 0.433
0.10611 0.11239 0.433
0.10516 0.11213 0.432
0.10397 0.11161 0.43
0.10327 0.11161 0.43
0.10233 0.11135 0.429
0.10163 0.11135 0.429
0.10093 0.11135 0.429
0.10023 0.11135 0.429
0.099534 0.11135 0.429
0.098835 0.11135 0.429
0.098136 0.11135 0.429
0.097437 0.11135 0.429
0.096738 0.11135 0.429
0.096039 0.11135 0.429
0.09534 0.11135 0.429
0.09464 0.11135 0.429
0.093941 0.11135 0.429
0.093242 0.11135 0.429
0.092543 0.11135 0.429
0.091844 0.11135 0.429
0.091145 0.11135 0.429
0.090446 0.11135 0.429
0.089746 0.11135 0.429
0.089047 0.11135 0.429
0.088348 0.11135 0.429
0.087445 0.11109 0.428
0.086747 0.11109 0.428
0.08605 0.11109 0.428
0.085352 0.11109 0.428
0.084655 0.11109 0.428
0.084153 0.11135 0.429
0.083454 0.11135 0.429
0.082755 0.11135 0.429
0.082056 0.11135 0.429
0.081357 0.11135 0.429
0.080658 0.11135 0.429
0.079958 0.11135 0.429
0.079259 0.11135 0.429
0.078743 0.11161 0.43
0.078042 0.11161 0.43
0.15071 0.098013 0.38
0.1501 0.098013 0.38
0.14947 0.098013 0.38
0.14886 0.098013 0.38
0.14824 0.098013 0.38
0.14762 0.098013 0.38
0.147 0.098013 0.38
0.14638 0.098013 0.38
0.14576 0.098013 0.38
0.14514 0.098013 0.38
0.14452 0.098013 0.38
0.1439 0.098013 0.38
0.14366 0.098271 0.381
0.14304 0.098271 0.381
0.14242 0.098271 0.381
0.1418 0.098271 0.381
0.14155 0.098529 0.382
0.14092 0.098529 0.382
0.1403 0.098529 0.382
0.13968 0.098529 0.382
0.13906 0.098529 0.382
0.13843 0.098529 0.382
0.13817 0.098787 0.383
0.13755 0.098787 0.383
0.13692 0.098787 0.383
0.1363 0.098787 0.383
0.13567 0.098787 0.383
0.1354 0.099045 0.384
0.13478 0.099045 0.384
0.13485 0.099561 0.386
0.13457 0.099819 0.387
0.13394 0.099819 0.387
0.13365 0.10008 0.388
0.13302 0.10008 0.388
0.13307 0.10059 0.39
0.13311 0.10111 0.392
0.13248 0.10111 0.392
0.13284 0.10188 0.395
0.1322 0.10188 0.395
0.13322 0.10317 0.4
0.13257 0.10317 0.4
0.13291 0.10395 0.403
0.13421 0.10601 0.411
0.13354 0.10601 0.411
0.13287 0.10601 0.411
0.13574 0.10885 0.422
0.13505 0.10885 0.422
0.13627 0.11039 0.428
0.13494 0.10988 0.426
0.13425 0.10988 0.426
0.13355 0.10988 0.426
0.13286 0.10988 0.426
0.13247 0.11014 0.427
0.13147 0.10988 0.426
0.13077 0.10988 0.426
0.13161 0.11117 0.431
0.12671 0.10936 0.424
0.12542 0.10885 0.422
0.12473 0.10885 0.422
0.12404 0.10885 0.422
0.12365 0.1091 0.423
0.12296 0.1091 0.423
0.12256 0.10936 0.424
0.12234 0.11168 0.433
0.12107 0.11117 0.431
0.12037 0.11117 0.431
0.11967 0.11117 0.431
0.11952 0.11168 0.433
0.11881 0.11168 0.433
0.11865 0.1122 0.435
0.11875 0.11297 0.438
0.11831 0.11323 0.439
0.11759 0.11323 0.439
0.11688 0.11323 0.439
0.11616 0.11323 0.439
0.11545 0.11323 0.439
0.11473 0.11323 0.439
0.11402 0.11323 0.439
0.1133 0.11323 0.439
0.11233 0.11297 0.438
0.11162 0.11297 0.438
0.11065 0.11271 0.437
0.10969 0.11246 0.436
0.10898 0.11246 0.436
0.10802 0.1122 0.435
0.10681 0.11168 0.433
0.10611 0.11168 0.433
0.10516 0.11142 0.432
0.10397 0.11091 0.43
0.10327 0.11091 0.43
0.10233 0.11065 0.429
0.10163 0.11065 0.429
0.10093 0.11065 0.429
0.10023 0.11065 0.429
0.099534 0.11065 0.429
0.098835 0.11065 0.429
0.098136 0.11065 0.429
0.097437 0.11065 0.429
0.096738 0.11065 0.429
0.096039 0.11065 0.429
0.09534 0.11065 0.429
0.09464 0.11065 0.429
0.093941 0.11065 0.429
0.093242 0.11065 0.429
0.092543 0.11065 0.429
0.091844 0.11065 0.429
0.091145 0.11065 0.429
0.090446 0.11065 0.429
0.089746 0.11065 0.429
0.089047 0.11065 0.429
0.088348 0.11065 0.429
0.087649 0.11065 0.429
0.08695 0.11065 0.429
0.086251 0.11065 0.429
0.085352 0.11039 0.428
0.084655 0.11039 0.428
0.084153 0.11065 0.429
0.083454 0.11065 0.429
0.082755 0.11065 0.429
0.082056 0.11065 0.429
0.081357 0.11065 0.429
0.080658 0.11065 0.429
0.079958 0.11065 0.429
0.079259 0.11065 0.429
0.078743 0.11091 0.43
0.078042 0.11091 0.43
0.077522 0.11117 0.431
0.076819 0.11117 0.431
0.15071 0.097394 0.38
0.1501 0.097394 0.38
0.14947 0.097394 0.38
0.14886 0.097394 0.38
0.14824 0.097394 0.38
0.14762 0.097394 0.38
0.147 0.097394 0.38
0.14638 0.097394 0.38
0.14576 0.097394 0.38
0.14514 0.097394 0.38
0.14452 0.097394 0.38
0.1439 0.097394 0.38
0.14366 0.09765 0.381
0.14304 0.09765 0.381
0.14242 0.09765 0.381
0.1418 0.09765 0.381
0.14155 0.097907 0.382
0.14092 0.097907 0.382
0.1403 0.097907 0.382
0.13968 0.097907 0.382
0.13906 0.097907 0.382
0.13843 0.097907 0.382
0.13817 0.098163 0.383
0.13755 0.098163 0.383
0.13692 0.098163 0.383
0.13665 0.098419 0.384
0.13603 0.098419 0.384
0.13576 0.098676 0.385
0.13513 0.098676 0.385
0.13485 0.098932 0.386
0.13492 0.099444 0.388
0.13428 0.099444 0.388
0.134 0.099701 0.389
0.13336 0.099701 0.389
0.13341 0.10021 0.391
0.13345 0.10073 0.393
0.13281 0.10073 0.393
0.13318 0.1015 0.396
0.13254 0.1015 0.396
0.13421 0.10534 0.411
0.13354 0.10534 0.411
0.13287 0.10534 0.411
0.13494 0.10918 0.426
0.13425 0.10918 0.426
0.13355 0.10918 0.426
0.13286 0.10918 0.426
0.13247 0.10944 0.427
0.13147 0.10918 0.426
0.13077 0.10918 0.426
0.12671 0.10867 0.424
0.12542 0.10816 0.422
0.12473 0.10816 0.422
0.12404 0.10816 0.422
0.12365 0.10841 0.423
0.12296 0.10841 0.423
0.12256 0.10867 0.424
0.12107 0.11046 0.431
0.12037 0.11046 0.431
0.11967 0.11046 0.431
0.11952 0.11098 0.433
0.11881 0.11098 0.433
0.11865 0.11149 0.435
0.11821 0.11175 0.436
0.1175 0.11175 0.436
0.11679 0.11175 0.436
0.11608 0.11175 0.436
0.11537 0.11175 0.436
0.11466 0.11175 0.436
0.11395 0.11175 0.436
0.11324 0.11175 0.436
0.11253 0.11175 0.436
0.11156 0.11149 0.435
0.11085 0.11149 0.435
0.10989 0.11123 0.434
0.10893 0.11098 0.433
0.10823 0.11098 0.433
0.10727 0.11072 0.432
0.10607 0.11021 0.43
0.10537 0.11021 0.43
0.10443 0.10995 0.429
0.10349 0.1097 0.428
0.10279 0.1097 0.428
0.10209 0.1097 0.428
0.10116 0.10944 0.427
0.10046 0.10944 0.427
0.099766 0.10944 0.427
0.099302 0.1097 0.428
0.098605 0.1097 0.428
0.097907 0.1097 0.428
0.09721 0.1097 0.428
0.096512 0.1097 0.428
0.095815 0.1097 0.428
0.09534 0.10995 0.429
0.09464 0.10995 0.429
0.093941 0.10995 0.429
0.093242 0.10995 0.429
0.092543 0.10995 0.429
0.091844 0.10995 0.429
0.091145 0.10995 0.429
0.090235 0.1097 0.428
0.089537 0.1097 0.428
0.08884 0.1097 0.428
0.088348 0.10995 0.429
0.087445 0.1097 0.428
0.086747 0.1097 0.428
0.08605 0.1097 0.428
0.085352 0.1097 0.428
0.084655 0.1097 0.428
0.083957 0.1097 0.428
0.08326 0.1097 0.428
0.082562 0.1097 0.428
0.082056 0.10995 0.429
0.081357 0.10995 0.429
0.080658 0.10995 0.429
0.079958 0.10995 0.429
0.079444 0.11021 0.43
0.078926 0.11046 0.431
0.078224 0.11046 0.431
0.077522 0.11046 0.431
0.076819 0.11046 0.431
0.07647 0.11098 0.433
0.075939 0.11123 0.434
0.075232 0.11123 0.434
0.074696 0.11149 0.435
0.15071 0.096775 0.38
0.1501 0.096775 0.38
0.14947 0.096775 0.38
0.14886 0.096775 0.38
0.14824 0.096775 0.38
0.14762 0.096775 0.38
0.147 0.096775 0.38
0.14638 0.096775 0.38
0.14576 0.096775 0.38
0.14514 0.096775 0.38
0.14452 0.096775 0.38
0.14428 0.09703 0.381
0.14366 0.09703 0.381
0.14304 0.09703 0.381
0.14242 0.09703 0.381
0.1418 0.09703 0.381
0.14155 0.097284 0.382
0.14092 0.097284 0.382
0.1403 0.097284 0.382
0.13968 0.097284 0.382
0.13942 0.097539 0.383
0.1388 0.097539 0.383
0.13817 0.097539 0.383
0.13755 0.097539 0.383
0.13728 0.097794 0.384
0.13701 0.098048 0.385
0.13638 0.098048 0.385
0.13576 0.098048 0.385
0.13513 0.098048 0.385
0.13485 0.098303 0.386
0.13492 0.098812 0.388
0.13428 0.098812 0.388
0.134 0.099067 0.389
0.13336 0.099067 0.389
0.13341 0.099576 0.391
0.13345 0.10009 0.393
0.13281 0.10009 0.393
0.13318 0.10085 0.396
0.13254 0.10085 0.396
0.13356 0.10212 0.401
0.1329 0.10212 0.401
0.13324 0.10289 0.404
0.13421 0.10467 0.411
0.13354 0.10467 0.411
0.13287 0.10467 0.411
0.13316 0.10543 0.414
0.13249 0.10543 0.414
0.1334 0.10671 0.419
0.13272 0.10671 0.419
0.13425 0.10849 0.426
0.13355 0.10849 0.426
0.13161 0.10747 0.422
0.13092 0.10747 0.422
0.13023 0.10747 0.422
0.12955 0.10747 0.422
0.12718 0.10722 0.421
0.12649 0.10722 0.421
0.12521 0.10671 0.419
0.12423 0.10645 0.418
0.12355 0.10645 0.418
0.12287 0.10645 0.418
0.12219 0.10645 0.418
0.1218 0.10671 0.419
0.12111 0.10671 0.419
0.12101 0.10722 0.421
0.12032 0.10722 0.421
0.12107 0.10976 0.431
0.12037 0.10976 0.431
0.11911 0.10925 0.429
0.11841 0.10925 0.429
0.11771 0.10925 0.429
0.11756 0.10976 0.431
0.11713 0.11002 0.432
0.11642 0.11002 0.432
0.11572 0.11002 0.432
0.11502 0.11002 0.432
0.11431 0.11002 0.432
0.11361 0.11002 0.432
0.1129 0.11002 0.432
0.1122 0.11002 0.432
0.11149 0.11002 0.432
0.11053 0.10976 0.431
0.10983 0.10976 0.431
0.10913 0.10976 0.431
0.10792 0.10925 0.429
0.10723 0.10925 0.429
0.10653 0.10925 0.429
0.10558 0.109 0.428
0.10488 0.109 0.428
0.10394 0.10874 0.427
0.103 0.10849 0.426
0.10231 0.10849 0.426
0.10161 0.10849 0.426
0.10092 0.10849 0.426
0.10023 0.10849 0.426
0.099533 0.10849 0.426
0.098838 0.10849 0.426
0.098144 0.10849 0.426
0.09745 0.10849 0.426
0.096983 0.10874 0.427
0.096287 0.10874 0.427
0.095591 0.10874 0.427
0.094895 0.10874 0.427
0.094199 0.10874 0.427
0.093722 0.109 0.428
0.093025 0.109 0.428
0.092543 0.10925 0.429
0.091844 0.10925 0.429
0.091145 0.10925 0.429
0.090235 0.109 0.428
0.089537 0.109 0.428
0.08884 0.109 0.428
0.088348 0.10925 0.429
0.087445 0.109 0.428
0.086747 0.109 0.428
0.08605 0.109 0.428
0.085352 0.109 0.428
0.084655 0.109 0.428
0.083957 0.109 0.428
0.08326 0.109 0.428
0.082562 0.109 0.428
0.082056 0.10925 0.429
0.081357 0.10925 0.429
0.080658 0.10925 0.429
0.079958 0.10925 0.429
0.079444 0.10951 0.43
0.078926 0.10976 0.431
0.078224 0.10976 0.431
0.077522 0.10976 0.431
0.076819 0.10976 0.431
0.07647 0.11027 0.433
0.075939 0.11053 0.434
0.075232 0.11053 0.434
0.074696 0.11078 0.435
0.15071 0.096156 0.38
0.1501 0.096156 0.38
0.14947 0.096156 0.38
0.14886 0.096156 0.38
0.14824 0.096156 0.38
0.14762 0.096156 0.38
0.147 0.096156 0.38
0.14638 0.096156 0.38
0.14576 0.096156 0.38
0.14514 0.096156 0.38
0.14452 0.096156 0.38
0.14428 0.096409 0.381
0.14366 0.096409 0.381
0.14304 0.096409 0.381
0.14242 0.096409 0.381
0.1418 0.096409 0.381
0.14155 0.096662 0.382
0.14092 0.096662 0.382
0.1403 0.096662 0.382
0.13968 0.096662 0.382
0.13942 0.096915 0.383
0.1388 0.096915 0.383
0.13817 0.096915 0.383
0.13755 0.096915 0.383
0.13728 0.097168 0.384
0.13701 0.097421 0.385
0.13638 0.097421 0.385
0.13576 0.097421 0.385
0.13513 0.097421 0.385
0.1352 0.097927 0.387
0.13492 0.09818 0.388
0.13428 0.09818 0.388
0.13469 0.098939 0.391
0.13405 0.098939 0.391
0.13375 0.099192 0.392
0.13413 0.099951 0.395
0.13349 0.099951 0.395
0.13385 0.10071 0.398
0.1332 0.10071 0.398
0.13356 0.10147 0.401
0.1329 0.10147 0.401
0.13324 0.10223 0.404
0.13324 0.10274 0.406
0.13257 0.10274 0.406
0.13351 0.10451 0.413
0.13284 0.10451 0.413
0.13217 0.10451 0.413
0.1334 0.10602 0.419
0.13272 0.10602 0.419
0.13036 0.10577 0.418
0.12937 0.10552 0.417
0.12869 0.10552 0.417
0.12801 0.10552 0.417
0.12733 0.10552 0.417
0.12665 0.10552 0.417
0.12567 0.10526 0.416
0.12439 0.10476 0.414
0.12372 0.10476 0.414
0.12275 0.10451 0.413
0.12207 0.10451 0.413
0.1214 0.10451 0.413
0.12219 0.10577 0.418
0.1218 0.10602 0.419
0.12111 0.10602 0.419
0.12101 0.10653 0.421
0.12032 0.10653 0.421
0.11911 0.10855 0.429
0.11841 0.10855 0.429
0.11771 0.10855 0.429
0.11756 0.10906 0.431
0.11713 0.10931 0.432
0.11642 0.10931 0.432
0.11572 0.10931 0.432
0.11502 0.10931 0.432
0.11431 0.10931 0.432
0.11361 0.10931 0.432
0.1129 0.10931 0.432
0.1122 0.10931 0.432
0.11149 0.10931 0.432
0.11053 0.10906 0.431
0.10983 0.10906 0.431
0.10913 0.10906 0.431
0.10792 0.10855 0.429
0.10723 0.10855 0.429
0.10653 0.10855 0.429
0.10558 0.1083 0.428
0.10488 0.1083 0.428
0.10394 0.10805 0.427
0.103 0.1078 0.426
0.10231 0.1078 0.426
0.10161 0.1078 0.426
0.10092 0.1078 0.426
0.10023 0.1078 0.426
0.099533 0.1078 0.426
0.098838 0.1078 0.426
0.098144 0.1078 0.426
0.09745 0.1078 0.426
0.096983 0.10805 0.427
0.096287 0.10805 0.427
0.095591 0.10805 0.427
0.094895 0.10805 0.427
0.094199 0.10805 0.427
0.093722 0.1083 0.428
0.093025 0.1083 0.428
0.092327 0.1083 0.428
0.09163 0.1083 0.428
0.090932 0.1083 0.428
0.090024 0.10805 0.427
0.089328 0.10805 0.427
0.088632 0.10805 0.427
0.087936 0.10805 0.427
0.08724 0.10805 0.427
0.086545 0.10805 0.427
0.085849 0.10805 0.427
0.085153 0.10805 0.427
0.084655 0.1083 0.428
0.083957 0.1083 0.428
0.08326 0.1083 0.428
0.082562 0.1083 0.428
0.082056 0.10855 0.429
0.081357 0.10855 0.429
0.080658 0.10855 0.429
0.079958 0.10855 0.429
0.079444 0.10881 0.43
0.078926 0.10906 0.431
0.078224 0.10906 0.431
0.077522 0.10906 0.431
0.076819 0.10906 0.431
0.07647 0.10957 0.433
0.075939 0.10982 0.434
0.075232 0.10982 0.434
0.074696 0.11007 0.435
0.074158 0.11033 0.436
0.15071 0.095537 0.38
0.1501 0.095537 0.38
0.14947 0.095537 0.38
0.14886 0.095537 0.38
0.14824 0.095537 0.38
0.14762 0.095537 0.38
0.147 0.095537 0.38
0.14638 0.095537 0.38
0.14576 0.095537 0.38
0.14514 0.095537 0.38
0.14452 0.095537 0.38
0.14428 0.095788 0.381
0.14366 0.095788 0.381
0.14304 0.095788 0.381
0.14242 0.095788 0.381
0.1418 0.095788 0.381
0.14155 0.096039 0.382
0.14092 0.096039 0.382
0.1403 0.096039 0.382
0.13968 0.096039 0.382
0.13942 0.096291 0.383
0.1388 0.096291 0.383
0.13817 0.096291 0.383
0.13755 0.096291 0.383
0.13728 0.096542 0.384
0.13701 0.096794 0.385
0.13638 0.096794 0.385
0.13611 0.097045 0.386
0.13548 0.097045 0.386
0.13555 0.097548 0.388
0.13561 0.098051 0.39
0.13498 0.098051 0.39
0.13503 0.098554 0.392
0.13439 0.098554 0.392
0.13447 0.099559 0.396
0.13383 0.099559 0.396
0.13419 0.10031 0.399
0.13354 0.10031 0.399
0.13389 0.10107 0.402
0.13323 0.10107 0.402
0.13324 0.10157 0.404
0.13324 0.10207 0.406
0.13257 0.10207 0.406
0.13351 0.10383 0.413
0.13284 0.10383 0.413
0.13217 0.10383 0.413
0.13036 0.10509 0.418
0.12937 0.10484 0.417
0.12869 0.10484 0.417
0.12801 0.10484 0.417
0.12733 0.10484 0.417
0.12665 0.10484 0.417
0.12567 0.10459 0.416
0.12439 0.10408 0.414
0.12372 0.10408 0.414
0.12275 0.10383 0.413
0.12207 0.10383 0.413
0.1214 0.10383 0.413
0.12102 0.10408 0.414
0.12034 0.10408 0.414
0.11967 0.10408 0.414
0.11957 0.10459 0.416
0.11889 0.10459 0.416
0.11878 0.10509 0.418
0.11867 0.10559 0.42
0.11798 0.10559 0.42
0.11911 0.10786 0.429
0.11841 0.10786 0.429
0.11771 0.10786 0.429
0.11647 0.10735 0.427
0.11577 0.10735 0.427
0.11508 0.10735 0.427
0.11465 0.1076 0.428
0.11395 0.1076 0.428
0.11325 0.1076 0.428
0.11256 0.1076 0.428
0.11212 0.10786 0.429
0.11142 0.10786 0.429
0.11072 0.10786 0.429
0.10977 0.1076 0.428
0.10881 0.10735 0.427
0.10812 0.10735 0.427
0.10717 0.1071 0.426
0.10648 0.1071 0.426
0.10578 0.1071 0.426
0.10484 0.10685 0.425
0.10415 0.10685 0.425
0.10346 0.10685 0.425
0.10252 0.1066 0.424
0.10183 0.1066 0.424
0.10114 0.1066 0.424
0.10045 0.1066 0.424
0.099756 0.1066 0.424
0.099065 0.1066 0.424
0.098606 0.10685 0.425
0.097914 0.10685 0.425
0.097221 0.10685 0.425
0.096529 0.10685 0.425
0.095836 0.10685 0.425
0.095367 0.1071 0.426
0.094673 0.1071 0.426
0.093979 0.1071 0.426
0.093284 0.1071 0.426
0.09259 0.1071 0.426
0.091896 0.1071 0.426
0.091202 0.1071 0.426
0.090507 0.1071 0.426
0.089813 0.1071 0.426
0.089119 0.1071 0.426
0.088425 0.1071 0.426
0.08773 0.1071 0.426
0.087036 0.1071 0.426
0.086342 0.1071 0.426
0.085648 0.1071 0.426
0.084953 0.1071 0.426
0.084259 0.1071 0.426
0.083565 0.1071 0.426
0.082871 0.1071 0.426
0.082369 0.10735 0.427
0.081865 0.1076 0.428
0.081167 0.1076 0.428
0.080658 0.10786 0.429
0.079958 0.10786 0.429
0.079259 0.10786 0.429
0.078926 0.10836 0.431
0.078224 0.10836 0.431
0.077701 0.10861 0.432
0.076997 0.10861 0.432
0.07647 0.10886 0.433
0.076114 0.10936 0.435
0.075405 0.10936 0.435
0.074868 0.10962 0.436
0.074158 0.10962 0.436
0.073615 0.10987 0.437
0.15071 0.094917 0.38
0.1501 0.094917 0.38
0.14947 0.094917 0.38
0.14886 0.094917 0.38
0.14824 0.094917 0.38
0.14762 0.094917 0.38
0.147 0.094917 0.38
0.14638 0.094917 0.38
0.14576 0.094917 0.38
0.14514 0.094917 0.38
0.14452 0.094917 0.38
0.14428 0.095167 0.381
0.14366 0.095167 0.381
0.14304 0.095167 0.381
0.14242 0.095167 0.381
0.1418 0.095167 0.381
0.14155 0.095417 0.382
0.14092 0.095417 0.382
0.1403 0.095417 0.382
0.13968 0.095417 0.382
0.13942 0.095667 0.383
0.1388 0.095667 0.383
0.13817 0.095667 0.383
0.13755 0.095667 0.383
0.13728 0.095917 0.384
0.13701 0.096166 0.385
0.13638 0.096166 0.385
0.13611 0.096416 0.386
0.13548 0.096416 0.386
0.13555 0.096916 0.388
0.13561 0.097415 0.39
0.13498 0.097415 0.39
0.13503 0.097915 0.392
0.13439 0.097915 0.392
0.13478 0.098664 0.395
0.13447 0.098914 0.396
0.13383 0.098914 0.396
0.13419 0.099663 0.399
0.13354 0.099663 0.399
0.13389 0.10041 0.402
0.13323 0.10041 0.402
0.13324 0.10091 0.404
0.13324 0.10141 0.406
0.13257 0.10141 0.406
0.13256 0.10191 0.408
0.1319 0.10191 0.408
0.1322 0.10266 0.411
0.13153 0.10266 0.411
0.1315 0.10316 0.413
0.13114 0.10341 0.414
0.13046 0.10341 0.414
0.13036 0.10441 0.418
0.12937 0.10416 0.417
0.12869 0.10416 0.417
0.12678 0.10316 0.413
0.12581 0.10291 0.412
0.12513 0.10291 0.412
0.12446 0.10291 0.412
0.12319 0.10241 0.41
0.12252 0.10241 0.41
0.12126 0.10191 0.408
0.12059 0.10191 0.408
0.12022 0.10216 0.409
0.11956 0.10216 0.409
0.11918 0.10241 0.41
0.11851 0.10241 0.41
0.11842 0.10291 0.412
0.11832 0.10341 0.414
0.11764 0.10341 0.414
0.11754 0.10391 0.416
0.11686 0.10391 0.416
0.11674 0.10441 0.418
0.11661 0.10491 0.42
0.11593 0.10491 0.42
0.11552 0.10516 0.421
0.11483 0.10516 0.421
0.11469 0.10566 0.423
0.11508 0.10666 0.427
0.11465 0.10691 0.428
0.11395 0.10691 0.428
0.11325 0.10691 0.428
0.11256 0.10691 0.428
0.11212 0.10716 0.429
0.11038 0.10616 0.425
0.10943 0.10591 0.424
0.10874 0.10591 0.424
0.10805 0.10591 0.424
0.10812 0.10666 0.427
0.10667 0.10591 0.424
0.10572 0.10566 0.423
0.10504 0.10566 0.423
0.10435 0.10566 0.423
0.10341 0.10541 0.422
0.10272 0.10541 0.422
0.10204 0.10541 0.422
0.10183 0.10591 0.424
0.10114 0.10591 0.424
0.10045 0.10591 0.424
0.099756 0.10591 0.424
0.099065 0.10591 0.424
0.098606 0.10616 0.425
0.097914 0.10616 0.425
0.097221 0.10616 0.425
0.096529 0.10616 0.425
0.095836 0.10616 0.425
0.095367 0.10641 0.426
0.094673 0.10641 0.426
0.093979 0.10641 0.426
0.093284 0.10641 0.426
0.09259 0.10641 0.426
0.091896 0.10641 0.426
0.091202 0.10641 0.426
0.090507 0.10641 0.426
0.089813 0.10641 0.426
0.089119 0.10641 0.426
0.088425 0.10641 0.426
0.08773 0.10641 0.426
0.087036 0.10641 0.426
0.086342 0.10641 0.426
0.085648 0.10641 0.426
0.084953 0.10641 0.426
0.084259 0.10641 0.426
0.083565 0.10641 0.426
0.082871 0.10641 0.426
0.082369 0.10666 0.427
0.081865 0.10691 0.428
0.081167 0.10691 0.428
0.080658 0.10716 0.429
0.079958 0.10716 0.429
0.079259 0.10716 0.429
0.078926 0.10766 0.431
0.078224 0.10766 0.431
0.077701 0.10791 0.432
0.076997 0.10791 0.432
0.07647 0.10816 0.433
0.076114 0.10866 0.435
0.075405 0.10866 0.435
0.074868 0.10891 0.436
0.074158 0.10891 0.436
0.073615 0.10916 0.437
0.15071 0.094298 0.38
0.1501 0.094298 0.38
0.14947 0.094298 0.38
0.14886 0.094298 0.38
0.14824 0.094298 0.38
0.14762 0.094298 0.38
0.147 0.094298 0.38
0.14638 0.094298 0.38
0.14576 0.094298 0.38
0.14514 0.094298 0.38
0.14452 0.094298 0.38
0.14428 0.094546 0.381
0.14366 0.094546 0.381
0.14304 0.094546 0.381
0.14242 0.094546 0.381
0.1418 0.094546 0.381
0.14155 0.094795 0.382
0.14092 0.094795 0.382
0.1403 0.094795 0.382
0.14004 0.095043 0.383
0.13942 0.095043 0.383
0.1388 0.095043 0.383
0.13853 0.095291 0.384
0.13791 0.095291 0.384
0.13764 0.095539 0.385
0.13737 0.095787 0.386
0.13674 0.095787 0.386
0.13646 0.096035 0.387
0.13583 0.096035 0.387
0.1359 0.096532 0.389
0.13596 0.097028 0.391
0.13532 0.097028 0.391
0.13537 0.097524 0.393
0.13473 0.097524 0.393
0.13478 0.098021 0.395
0.13447 0.098269 0.396
0.13417 0.098517 0.397
0.13419 0.099013 0.399
0.13354 0.099013 0.399
0.13389 0.099758 0.402
0.13323 0.099758 0.402
0.13324 0.10025 0.404
0.13291 0.1005 0.405
0.13225 0.1005 0.405
0.13224 0.101 0.407
0.13157 0.101 0.407
0.13156 0.1015 0.409
0.13153 0.10199 0.411
0.13086 0.10199 0.411
0.13114 0.10274 0.414
0.13046 0.10274 0.414
0.12678 0.10249 0.413
0.12581 0.10224 0.412
0.12513 0.10224 0.412
0.12446 0.10224 0.412
0.12319 0.10174 0.41
0.12252 0.10174 0.41
0.12126 0.10125 0.408
0.12059 0.10125 0.408
0.12022 0.1015 0.409
0.11956 0.1015 0.409
0.11918 0.10174 0.41
0.11851 0.10174 0.41
0.11842 0.10224 0.412
0.11832 0.10274 0.414
0.11764 0.10274 0.414
0.11754 0.10323 0.416
0.11686 0.10323 0.416
0.11674 0.10373 0.418
0.11661 0.10422 0.42
0.11593 0.10422 0.42
0.11552 0.10447 0.421
0.11483 0.10447 0.421
0.11469 0.10497 0.423
0.11038 0.10547 0.425
0.10943 0.10522 0.424
0.10874 0.10522 0.424
0.10805 0.10522 0.424
0.10667 0.10522 0.424
0.10572 0.10497 0.423
0.10504 0.10497 0.423
0.10435 0.10497 0.423
0.10341 0.10472 0.422
0.10272 0.10472 0.422
0.10204 0.10472 0.422
0.10135 0.10472 0.422
0.10066 0.10472 0.422
0.099974 0.10472 0.422
0.099521 0.10497 0.423
0.098832 0.10497 0.423
0.098142 0.10497 0.423
0.097453 0.10497 0.423
0.096764 0.10497 0.423
0.096301 0.10522 0.424
0.09561 0.10522 0.424
0.094919 0.10522 0.424
0.094228 0.10522 0.424
0.093537 0.10522 0.424
0.092846 0.10522 0.424
0.092155 0.10522 0.424
0.091464 0.10522 0.424
0.090773 0.10522 0.424
0.090082 0.10522 0.424
0.089391 0.10522 0.424
0.0887 0.10522 0.424
0.088009 0.10522 0.424
0.087524 0.10547 0.425
0.086832 0.10547 0.425
0.086139 0.10547 0.425
0.085447 0.10547 0.425
0.084754 0.10547 0.425
0.084061 0.10547 0.425
0.083565 0.10571 0.426
0.082871 0.10571 0.426
0.082176 0.10571 0.426
0.081673 0.10596 0.427
0.080977 0.10596 0.427
0.08047 0.10621 0.428
0.079772 0.10621 0.428
0.079259 0.10646 0.429
0.078743 0.10671 0.43
0.078042 0.10671 0.43
0.077701 0.1072 0.432
0.076997 0.1072 0.432
0.07647 0.10745 0.433
0.076114 0.10795 0.435
0.075405 0.10795 0.435
0.074868 0.10819 0.436
0.074158 0.10819 0.436
0.073615 0.10844 0.437
0.073237 0.10894 0.439
0.072521 0.10894 0.439
0.071806 0.10894 0.439
0.071414 0.10944 0.441
0.070696 0.10944 0.441
0.070136 0.10968 0.442
0.069415 0.10968 0.442
0.15133 0.093679 0.38
0.15071 0.093679 0.38
0.1501 0.093679 0.38
0.14947 0.093679 0.38
0.14886 0.093679 0.38
0.14824 0.093679 0.38
0.14762 0.093679 0.38
0.147 0.093679 0.38
0.14676 0.093926 0.381
0.14614 0.093926 0.381
0.14552 0.093926 0.381
0.1449 0.093926 0.381
0.14428 0.093926 0.381
0.14366 0.093926 0.381
0.14304 0.093926 0.381
0.14242 0.093926 0.381
0.1418 0.093926 0.381
0.14155 0.094172 0.382
0.14092 0.094172 0.382
0.1403 0.094172 0.382
0.14004 0.094419 0.383
0.13978 0.094665 0.384
0.13916 0.094665 0.384
0.13889 0.094912 0.385
0.13827 0.094912 0.385
0.138 0.095158 0.386
0.13772 0.095405 0.387
0.13709 0.095405 0.387
0.13681 0.095651 0.388
0.13618 0.095651 0.388
0.13625 0.096144 0.39
0.13631 0.096637 0.392
0.13567 0.096637 0.392
0.13572 0.097131 0.394
0.13508 0.097131 0.394
0.13512 0.097624 0.396
0.13447 0.097624 0.396
0.1345 0.098117 0.398
0.13453 0.09861 0.4
0.13387 0.09861 0.4
0.13389 0.099103 0.402
0.13323 0.099103 0.402
0.13324 0.099596 0.404
0.13291 0.099842 0.405
0.13225 0.099842 0.405
0.13224 0.10033 0.407
0.13157 0.10033 0.407
0.13156 0.10083 0.409
0.13153 0.10132 0.411
0.13086 0.10132 0.411
0.13019 0.10132 0.411
0.12952 0.10132 0.411
0.12885 0.10132 0.411
0.12818 0.10132 0.411
0.12751 0.10132 0.411
0.12684 0.10132 0.411
0.12617 0.10132 0.411
0.1255 0.10132 0.411
0.12483 0.10132 0.411
0.12386 0.10107 0.41
0.12289 0.10083 0.409
0.12222 0.10083 0.409
0.12126 0.10058 0.408
0.12059 0.10058 0.408
0.11993 0.10058 0.408
0.11926 0.10058 0.408
0.11889 0.10083 0.409
0.11822 0.10083 0.409
0.11784 0.10107 0.41
0.11746 0.10132 0.411
0.11679 0.10132 0.411
0.11669 0.10181 0.413
0.11601 0.10181 0.413
0.11562 0.10206 0.414
0.1155 0.10255 0.416
0.11482 0.10255 0.416
0.11469 0.10305 0.418
0.11401 0.10305 0.418
0.1136 0.10329 0.419
0.11319 0.10354 0.42
0.1125 0.10354 0.42
0.11182 0.10354 0.42
0.1114 0.10379 0.421
0.11071 0.10379 0.421
0.11003 0.10379 0.421
0.10934 0.10379 0.421
0.10866 0.10379 0.421
0.10797 0.10379 0.421
0.10728 0.10379 0.421
0.1066 0.10379 0.421
0.10591 0.10379 0.421
0.10498 0.10354 0.42
0.10429 0.10354 0.42
0.10361 0.10354 0.42
0.10292 0.10354 0.42
0.10224 0.10354 0.42
0.10155 0.10354 0.42
0.10087 0.10354 0.42
0.10042 0.10379 0.421
0.099737 0.10379 0.421
0.099051 0.10379 0.421
0.098364 0.10379 0.421
0.09791 0.10403 0.422
0.097223 0.10403 0.422
0.096535 0.10403 0.422
0.095847 0.10403 0.422
0.095159 0.10403 0.422
0.094472 0.10403 0.422
0.094006 0.10428 0.423
0.093096 0.10403 0.422
0.092408 0.10403 0.422
0.091938 0.10428 0.423
0.091033 0.10403 0.422
0.090345 0.10403 0.422
0.08987 0.10428 0.423
0.08897 0.10403 0.422
0.088282 0.10403 0.422
0.087594 0.10403 0.422
0.087113 0.10428 0.423
0.086423 0.10428 0.423
0.085734 0.10428 0.423
0.085044 0.10428 0.423
0.084554 0.10453 0.424
0.083863 0.10453 0.424
0.083172 0.10453 0.424
0.082481 0.10453 0.424
0.081983 0.10477 0.425
0.081482 0.10502 0.426
0.080788 0.10502 0.426
0.08047 0.10551 0.428
0.079772 0.10551 0.428
0.079259 0.10576 0.429
0.078743 0.10601 0.43
0.078042 0.10601 0.43
0.077701 0.1065 0.432
0.076997 0.1065 0.432
0.076647 0.10699 0.434
0.076114 0.10724 0.435
0.075405 0.10724 0.435
0.07504 0.10773 0.437
0.074328 0.10773 0.437
0.073784 0.10798 0.438
0.073237 0.10822 0.439
0.072521 0.10822 0.439
0.071806 0.10822 0.439
0.071414 0.10872 0.441
0.070696 0.10872 0.441
0.070136 0.10896 0.442
0.069415 0.10896 0.442
0.15133 0.09306 0.38
0.15071 0.09306 0.38
0.1501 0.09306 0.38
0.14947 0.09306 0.38
0.14886 0.09306 0.38
0.14824 0.09306 0.38
0.14762 0.09306 0.38
0.147 0.09306 0.38
0.14676 0.093305 0.381
0.14614 0.093305 0.381
0.14552 0.093305 0.381
0.1449 0.093305 0.381
0.14428 0.093305 0.381
0.14366 0.093305 0.381
0.14304 0.093305 0.381
0.14242 0.093305 0.381
0.1418 0.093305 0.381
0.14155 0.09355 0.382
0.14092 0.09355 0.382
0.1403 0.09355 0.382
0.14004 0.093795 0.383
0.13978 0.09404 0.384
0.13916 0.09404 0.384
0.13889 0.094285 0.385
0.13827 0.094285 0.385
0.138 0.094529 0.386
0.13772 0.094774 0.387
0.13709 0.094774 0.387
0.13681 0.095019 0.388
0.13618 0.095019 0.388
0.13625 0.095509 0.39
0.13631 0.095999 0.392
0.13567 0.095999 0.392
0.13572 0.096489 0.394
0.13508 0.096489 0.394
0.13512 0.096978 0.396
0.13447 0.096978 0.396
0.1345 0.097468 0.398
0.13453 0.097958 0.4
0.13387 0.097958 0.4
0.13389 0.098448 0.402
0.13323 0.098448 0.402
0.13324 0.098938 0.404
0.13291 0.099182 0.405
0.13225 0.099182 0.405
0.13191 0.099427 0.406
0.13125 0.099427 0.406
0.13123 0.099917 0.408
0.13089 0.10016 0.409
0.13022 0.10016 0.409
0.12956 0.10016 0.409
0.12889 0.10016 0.409
0.12822 0.10016 0.409
0.12756 0.10016 0.409
0.12689 0.10016 0.409
0.12622 0.10016 0.409
0.12556 0.10016 0.409
0.12489 0.10016 0.409
0.12422 0.10016 0.409
0.12356 0.10016 0.409
0.12259 0.099917 0.408
0.12192 0.099917 0.408
0.12126 0.099917 0.408
0.12059 0.099917 0.408
0.11993 0.099917 0.408
0.11926 0.099917 0.408
0.1186 0.099917 0.408
0.11822 0.10016 0.409
0.11756 0.10016 0.409
0.11718 0.10041 0.41
0.11651 0.10041 0.41
0.11612 0.10065 0.411
0.11573 0.1009 0.412
0.11506 0.1009 0.412
0.11467 0.10114 0.413
0.11399 0.10114 0.413
0.1136 0.10139 0.414
0.1132 0.10163 0.415
0.11252 0.10163 0.415
0.11211 0.10188 0.416
0.11143 0.10188 0.416
0.11102 0.10212 0.417
0.1114 0.1031 0.421
0.11071 0.1031 0.421
0.11003 0.1031 0.421
0.10934 0.1031 0.421
0.10866 0.1031 0.421
0.10797 0.1031 0.421
0.10728 0.1031 0.421
0.1066 0.1031 0.421
0.10591 0.1031 0.421
0.10498 0.10286 0.42
0.10429 0.10286 0.42
0.10361 0.10286 0.42
0.10292 0.10286 0.42
0.10224 0.10286 0.42
0.10155 0.10286 0.42
0.10087 0.10286 0.42
0.10042 0.1031 0.421
0.099737 0.1031 0.421
0.099051 0.1031 0.421
0.098364 0.1031 0.421
0.09791 0.10335 0.422
0.097223 0.10335 0.422
0.096535 0.10335 0.422
0.095847 0.10335 0.422
0.095159 0.10335 0.422
0.094472 0.10335 0.422
0.094006 0.10359 0.423
0.093096 0.10335 0.422
0.092408 0.10335 0.422
0.091938 0.10359 0.423
0.091033 0.10335 0.422
0.090345 0.10335 0.422
0.08987 0.10359 0.423
0.08897 0.10335 0.422
0.088282 0.10335 0.422
0.087594 0.10335 0.422
0.087113 0.10359 0.423
0.086423 0.10359 0.423
0.085734 0.10359 0.423
0.085044 0.10359 0.423
0.084554 0.10383 0.424
0.083863 0.10383 0.424
0.083172 0.10383 0.424
0.082481 0.10383 0.424
0.081983 0.10408 0.425
0.081482 0.10433 0.426
0.080788 0.10433 0.426
0.08047 0.10482 0.428
0.079772 0.10482 0.428
0.079259 0.10506 0.429
0.078743 0.1053 0.43
0.078042 0.1053 0.43
0.077701 0.1058 0.432
0.076997 0.1058 0.432
0.076647 0.10628 0.434
0.076114 0.10653 0.435
0.075405 0.10653 0.435
0.07504 0.10702 0.437
0.074328 0.10702 0.437
0.073784 0.10726 0.438
0.073237 0.10751 0.439
0.072521 0.10751 0.439
0.071806 0.10751 0.439
0.071414 0.108 0.441
0.070696 0.108 0.441
0.070136 0.10824 0.442
0.069415 0.10824 0.442
0.068695 0.10824 0.442
0.15133 0.092441 0.38
0.15071 0.092441 0.38
0.1501 0.092441 0.38
0.14947 0.092441 0.38
0.14886 0.092441 0.38
0.14824 0.092441 0.38
0.14762 0.092441 0.38
0.147 0.092441 0.38
0.14676 0.092684 0.381
0.14614 0.092684 0.381
0.14552 0.092684 0.381
0.1449 0.092684 0.381
0.14428 0.092684 0.381
0.14366 0.092684 0.381
0.14304 0.092684 0.381
0.14279 0.092927 0.382
0.14217 0.092927 0.382
0.14155 0.092927 0.382
0.14129 0.093171 0.383
0.14067 0.093171 0.383
0.14041 0.093414 0.384
0.14015 0.093657 0.385
0.13952 0.093657 0.385
0.13925 0.0939 0.386
0.13862 0.0939 0.386
0.13835 0.094144 0.387
0.13808 0.094387 0.388
0.13745 0.094387 0.388
0.13752 0.094874 0.39
0.13688 0.094874 0.39
0.13695 0.09536 0.392
0.13631 0.09536 0.392
0.13601 0.095603 0.393
0.13606 0.09609 0.395
0.13542 0.09609 0.395
0.13546 0.096576 0.397
0.13481 0.096576 0.397
0.13484 0.097063 0.399
0.13486 0.097549 0.401
0.13421 0.097549 0.401
0.13422 0.098036 0.403
0.13356 0.098036 0.403
0.13324 0.098279 0.404
0.13291 0.098523 0.405
0.13225 0.098523 0.405
0.13191 0.098766 0.406
0.13125 0.098766 0.406
0.13123 0.099252 0.408
0.13089 0.099496 0.409
0.13022 0.099496 0.409
0.12956 0.099496 0.409
0.12889 0.099496 0.409
0.12822 0.099496 0.409
0.12756 0.099496 0.409
0.12689 0.099496 0.409
0.12622 0.099496 0.409
0.12556 0.099496 0.409
0.12489 0.099496 0.409
0.12422 0.099496 0.409
0.12356 0.099496 0.409
0.12259 0.099252 0.408
0.12192 0.099252 0.408
0.12126 0.099252 0.408
0.12059 0.099252 0.408
0.11993 0.099252 0.408
0.11926 0.099252 0.408
0.1186 0.099252 0.408
0.11822 0.099496 0.409
0.11756 0.099496 0.409
0.11718 0.099739 0.41
0.11651 0.099739 0.41
0.11612 0.099982 0.411
0.11573 0.10022 0.412
0.11506 0.10022 0.412
0.11467 0.10047 0.413
0.11399 0.10047 0.413
0.1136 0.10071 0.414
0.1132 0.10096 0.415
0.11252 0.10096 0.415
0.11211 0.1012 0.416
0.11143 0.1012 0.416
0.11102 0.10144 0.417
0.11034 0.10144 0.417
0.10966 0.10144 0.417
0.10924 0.10168 0.418
0.10856 0.10168 0.418
0.10788 0.10168 0.418
0.1072 0.10168 0.418
0.10652 0.10168 0.418
0.10584 0.10168 0.418
0.10516 0.10168 0.418
0.10448 0.10168 0.418
0.10379 0.10168 0.418
0.10311 0.10168 0.418
0.10243 0.10168 0.418
0.10175 0.10168 0.418
0.10107 0.10168 0.418
0.10063 0.10193 0.419
0.099946 0.10193 0.419
0.099263 0.10193 0.419
0.098815 0.10217 0.42
0.098131 0.10217 0.42
0.097446 0.10217 0.42
0.096762 0.10217 0.42
0.096077 0.10217 0.42
0.09562 0.10242 0.421
0.094934 0.10242 0.421
0.094248 0.10242 0.421
0.093339 0.10217 0.42
0.092655 0.10217 0.42
0.091971 0.10217 0.42
0.091503 0.10242 0.421
0.090602 0.10217 0.42
0.089917 0.10217 0.42
0.089445 0.10242 0.421
0.088548 0.10217 0.42
0.087864 0.10217 0.42
0.087387 0.10242 0.421
0.086701 0.10242 0.421
0.086015 0.10242 0.421
0.085328 0.10242 0.421
0.084642 0.10242 0.421
0.084156 0.10266 0.422
0.083468 0.10266 0.422
0.08278 0.10266 0.422
0.082481 0.10315 0.424
0.08179 0.10315 0.424
0.081291 0.10339 0.425
0.080598 0.10339 0.425
0.080282 0.10387 0.427
0.079772 0.10412 0.428
0.079444 0.1046 0.43
0.078743 0.1046 0.43
0.078042 0.1046 0.43
0.077701 0.10509 0.432
0.076997 0.10509 0.432
0.076647 0.10558 0.434
0.076289 0.10606 0.436
0.075579 0.10606 0.436
0.07504 0.10631 0.437
0.074328 0.10631 0.437
0.073784 0.10655 0.438
0.073237 0.10679 0.439
0.072521 0.10679 0.439
0.07197 0.10704 0.44
0.071414 0.10728 0.441
0.070696 0.10728 0.441
0.070136 0.10752 0.442
0.069415 0.10752 0.442
0.068695 0.10752 0.442
0.067975 0.10752 0.442
0.067102 0.10728 0.441
0.066233 0.10704 0.44
0.065516 0.10704 0.44
0.064799 0.10704 0.44
0.15071 0.091822 0.38
0.1501 0.091822 0.38
0.14947 0.091822 0.38
0.14886 0.091822 0.38
0.14824 0.091822 0.38
0.14762 0.091822 0.38
0.147 0.091822 0.38
0.14676 0.092063 0.381
0.14614 0.092063 0.381
0.14552 0.092063 0.381
0.1449 0.092063 0.381
0.14428 0.092063 0.381
0.14366 0.092063 0.381
0.14304 0.092063 0.381
0.14279 0.092305 0.382
0.14217 0.092305 0.382
0.14192 0.092547 0.383
0.14129 0.092547 0.383
0.14067 0.092547 0.383
0.14041 0.092788 0.384
0.14051 0.093272 0.386
0.13988 0.093272 0.386
0.13961 0.093513 0.387
0.13898 0.093513 0.387
0.13871 0.093755 0.388
0.13879 0.094238 0.39
0.13816 0.094238 0.39
0.13787 0.09448 0.391
0.13723 0.09448 0.391
0.1373 0.094963 0.393
0.13666 0.094963 0.393
0.13671 0.095446 0.395
0.13606 0.095446 0.395
0.13542 0.095446 0.395
0.13546 0.09593 0.397
0.13481 0.09593 0.397
0.13484 0.096413 0.399
0.13486 0.096896 0.401
0.13421 0.096896 0.401
0.13422 0.097379 0.403
0.13356 0.097379 0.403
0.13324 0.097621 0.404
0.13291 0.097863 0.405
0.13225 0.097863 0.405
0.13191 0.098104 0.406
0.13125 0.098104 0.406
0.13091 0.098346 0.407
0.13057 0.098588 0.408
0.1299 0.098588 0.408
0.12924 0.098588 0.408
0.12857 0.098588 0.408
0.12791 0.098588 0.408
0.12724 0.098588 0.408
0.12658 0.098588 0.408
0.12591 0.098588 0.408
0.12525 0.098588 0.408
0.12458 0.098588 0.408
0.12392 0.098588 0.408
0.12325 0.098588 0.408
0.12229 0.098346 0.407
0.12162 0.098346 0.407
0.12096 0.098346 0.407
0.12059 0.098588 0.408
0.11993 0.098588 0.408
0.11926 0.098588 0.408
0.1186 0.098588 0.408
0.11793 0.098588 0.408
0.11727 0.098588 0.408
0.11689 0.098829 0.409
0.11622 0.098829 0.409
0.11556 0.098829 0.409
0.11517 0.099071 0.41
0.1145 0.099071 0.41
0.11411 0.099312 0.411
0.11344 0.099312 0.411
0.11277 0.099312 0.411
0.1121 0.099312 0.411
0.11143 0.099312 0.411
0.11103 0.099554 0.412
0.11063 0.099796 0.413
0.10996 0.099796 0.413
0.10955 0.10004 0.414
0.10887 0.10004 0.414
0.1082 0.10004 0.414
0.10752 0.10004 0.414
0.10685 0.10004 0.414
0.10643 0.10028 0.415
0.10576 0.10028 0.415
0.10508 0.10028 0.415
0.10465 0.10052 0.416
0.10398 0.10052 0.416
0.1033 0.10052 0.416
0.10287 0.10076 0.417
0.10219 0.10076 0.417
0.10151 0.10076 0.417
0.10083 0.10076 0.417
0.10039 0.101 0.418
0.099707 0.101 0.418
0.099026 0.101 0.418
0.09858 0.10125 0.419
0.097897 0.10125 0.419
0.097214 0.10125 0.419
0.096531 0.10125 0.419
0.095849 0.10125 0.419
0.095166 0.10125 0.419
0.094483 0.10125 0.419
0.0938 0.10125 0.419
0.093117 0.10125 0.419
0.092434 0.10125 0.419
0.091752 0.10125 0.419
0.091069 0.10125 0.419
0.09017 0.101 0.418
0.089489 0.101 0.418
0.088808 0.101 0.418
0.088126 0.101 0.418
0.087864 0.10149 0.42
0.087387 0.10173 0.421
0.086701 0.10173 0.421
0.086015 0.10173 0.421
0.085328 0.10173 0.421
0.084642 0.10173 0.421
0.084156 0.10197 0.422
0.083468 0.10197 0.422
0.08278 0.10197 0.422
0.082481 0.10245 0.424
0.08179 0.10245 0.424
0.081291 0.10269 0.425
0.080598 0.10269 0.425
0.080282 0.10318 0.427
0.079444 0.1039 0.43
0.078743 0.1039 0.43
0.078042 0.1039 0.43
0.077701 0.10439 0.432
0.076997 0.10439 0.432
0.076823 0.10511 0.435
0.076289 0.10535 0.436
0.075579 0.10535 0.436
0.07504 0.10559 0.437
0.074328 0.10559 0.437
0.073952 0.10608 0.439
0.073237 0.10608 0.439
0.072521 0.10608 0.439
0.07197 0.10632 0.44
0.071414 0.10656 0.441
0.070696 0.10656 0.441
0.070136 0.1068 0.442
0.069415 0.1068 0.442
0.068695 0.1068 0.442
0.067975 0.1068 0.442
0.067102 0.10656 0.441
0.066233 0.10632 0.44
0.065516 0.10632 0.44
0.064799 0.10632 0.44
0.15071 0.091203 0.38
0.1501 0.091203 0.38
0.14947 0.091203 0.38
0.14886 0.091203 0.38
0.14824 0.091203 0.38
0.14762 0.091203 0.38
0.147 0.091203 0.38
0.14676 0.091443 0.381
0.14614 0.091443 0.381
0.14552 0.091443 0.381
0.1449 0.091443 0.381
0.14428 0.091443 0.381
0.14366 0.091443 0.381
0.14304 0.091443 0.381
0.14279 0.091683 0.382
0.14217 0.091683 0.382
0.14192 0.091923 0.383
0.14129 0.091923 0.383
0.14067 0.091923 0.383
0.14041 0.092163 0.384
0.14051 0.092643 0.386
0.13988 0.092643 0.386
0.13961 0.092883 0.387
0.13898 0.092883 0.387
0.13871 0.093123 0.388
0.13879 0.093603 0.39
0.13816 0.093603 0.39
0.13787 0.093843 0.391
0.13723 0.093843 0.391
0.1373 0.094323 0.393
0.13666 0.094323 0.393
0.13671 0.094803 0.395
0.13675 0.095283 0.397
0.13611 0.095283 0.397
0.13614 0.095763 0.399
0.13549 0.095763 0.399
0.13552 0.096243 0.401
0.1352 0.096483 0.402
0.13454 0.096483 0.402
0.13422 0.096723 0.403
0.13356 0.096723 0.403
0.13324 0.096963 0.404
0.13291 0.097203 0.405
0.13225 0.097203 0.405
0.13191 0.097443 0.406
0.13125 0.097443 0.406
0.13091 0.097683 0.407
0.13025 0.097683 0.407
0.12959 0.097683 0.407
0.12892 0.097683 0.407
0.12857 0.097923 0.408
0.12759 0.097683 0.407
0.12693 0.097683 0.407
0.12627 0.097683 0.407
0.1256 0.097683 0.407
0.12494 0.097683 0.407
0.12428 0.097683 0.407
0.12362 0.097683 0.407
0.12295 0.097683 0.407
0.12229 0.097683 0.407
0.12162 0.097683 0.407
0.12096 0.097683 0.407
0.1203 0.097683 0.407
0.11964 0.097683 0.407
0.11897 0.097683 0.407
0.11831 0.097683 0.407
0.11793 0.097923 0.408
0.11727 0.097923 0.408
0.11689 0.098163 0.409
0.11622 0.098163 0.409
0.11556 0.098163 0.409
0.11517 0.098403 0.41
0.1145 0.098403 0.41
0.11411 0.098643 0.411
0.11344 0.098643 0.411
0.11277 0.098643 0.411
0.1121 0.098643 0.411
0.11143 0.098643 0.411
0.11103 0.098883 0.412
0.11063 0.099123 0.413
0.10996 0.099123 0.413
0.10955 0.099363 0.414
0.10887 0.099363 0.414
0.1082 0.099363 0.414
0.10752 0.099363 0.414
0.10685 0.099363 0.414
0.10643 0.099603 0.415
0.10576 0.099603 0.415
0.10508 0.099603 0.415
0.10465 0.099843 0.416
0.10398 0.099843 0.416
0.1033 0.099843 0.416
0.10287 0.10008 0.417
0.10219 0.10008 0.417
0.10151 0.10008 0.417
0.10083 0.10008 0.417
0.10039 0.10032 0.418
0.099707 0.10032 0.418
0.099026 0.10032 0.418
0.09858 0.10056 0.419
0.097897 0.10056 0.419
0.097214 0.10056 0.419
0.096531 0.10056 0.419
0.095849 0.10056 0.419
0.095166 0.10056 0.419
0.094483 0.10056 0.419
0.0938 0.10056 0.419
0.093117 0.10056 0.419
0.092434 0.10056 0.419
0.091752 0.10056 0.419
0.091069 0.10056 0.419
0.09017 0.10032 0.418
0.089489 0.10032 0.418
0.088808 0.10032 0.418
0.088126 0.10032 0.418
0.087445 0.10032 0.418
0.086972 0.10056 0.419
0.086289 0.10056 0.419
0.085606 0.10056 0.419
0.084923 0.10056 0.419
0.08424 0.10056 0.419
0.083757 0.1008 0.42
0.083072 0.1008 0.42
0.082584 0.10104 0.421
0.082092 0.10128 0.422
0.081405 0.10128 0.422
0.081099 0.10176 0.424
0.080408 0.10176 0.424
0.080094 0.10224 0.426
0.079772 0.10272 0.428
0.079075 0.10272 0.428
0.078743 0.1032 0.43
0.078042 0.1032 0.43
0.077701 0.10368 0.432
0.076997 0.10368 0.432
0.076823 0.1044 0.435
0.076289 0.10464 0.436
0.075579 0.10464 0.436
0.07504 0.10488 0.437
0.074328 0.10488 0.437
0.073952 0.10536 0.439
0.073237 0.10536 0.439
0.072521 0.10536 0.439
0.07197 0.1056 0.44
0.071414 0.10584 0.441
0.070696 0.10584 0.441
0.070136 0.10608 0.442
0.069415 0.10608 0.442
0.068695 0.10608 0.442
0.067975 0.10608 0.442
0.067102 0.10584 0.441
0.066233 0.1056 0.44
0.065516 0.1056 0.44
0.064799 0.1056 0.44
0.14947 0.090583 0.38
0.14886 0.090583 0.38
0.14824 0.090583 0.38
0.14762 0.090583 0.38
0.147 0.090583 0.38
0.14676 0.090822 0.381
0.14614 0.090822 0.381
0.14552 0.090822 0.381
0.1449 0.090822 0.381
0.14428 0.090822 0.381
0.14404 0.09106 0.382
0.14341 0.09106 0.382
0.14279 0.09106 0.382
0.14217 0.09106 0.382
0.14192 0.091299 0.383
0.14166 0.091537 0.384
0.14104 0.091537 0.384
0.14078 0.091775 0.385
0.14088 0.092252 0.387
0.14025 0.092252 0.387
0.13998 0.092491 0.388
0.13934 0.092491 0.388
0.13943 0.092967 0.39
0.13879 0.092967 0.39
0.13851 0.093206 0.391
0.13858 0.093682 0.393
0.13794 0.093682 0.393
0.138 0.094159 0.395
0.13735 0.094159 0.395
0.1374 0.094636 0.397
0.1371 0.094874 0.398
0.13645 0.094874 0.398
0.13648 0.095351 0.4
0.13583 0.095351 0.4
0.13585 0.095828 0.402
0.13554 0.096066 0.403
0.13488 0.096066 0.403
0.13456 0.096305 0.404
0.1339 0.096305 0.404
0.13357 0.096543 0.405
0.13324 0.096781 0.406
0.13257 0.096781 0.406
0.13191 0.096781 0.406
0.13125 0.096781 0.406
0.13091 0.09702 0.407
0.13025 0.09702 0.407
0.12959 0.09702 0.407
0.12892 0.09702 0.407
0.12857 0.097258 0.408
0.12759 0.09702 0.407
0.12693 0.09702 0.407
0.12627 0.09702 0.407
0.1256 0.09702 0.407
0.12494 0.09702 0.407
0.12428 0.09702 0.407
0.12362 0.09702 0.407
0.12295 0.09702 0.407
0.12229 0.09702 0.407
0.12162 0.09702 0.407
0.12096 0.09702 0.407
0.1203 0.09702 0.407
0.11964 0.09702 0.407
0.11897 0.09702 0.407
0.11831 0.09702 0.407
0.11793 0.097258 0.408
0.11727 0.097258 0.408
0.11661 0.097258 0.408
0.11594 0.097258 0.408
0.11556 0.097496 0.409
0.11489 0.097496 0.409
0.11422 0.097496 0.409
0.11356 0.097496 0.409
0.11289 0.097496 0.409
0.11223 0.097496 0.409
0.11183 0.097735 0.41
0.11116 0.097735 0.41
0.11049 0.097735 0.41
0.10983 0.097735 0.41
0.10916 0.097735 0.41
0.10849 0.097735 0.41
0.10809 0.097973 0.411
0.10741 0.097973 0.411
0.10675 0.097973 0.411
0.10608 0.097973 0.411
0.10566 0.098212 0.412
0.10525 0.09845 0.413
0.10457 0.09845 0.413
0.10415 0.098688 0.414
0.10348 0.098688 0.414
0.1028 0.098688 0.414
0.10237 0.098927 0.415
0.1017 0.098927 0.415
0.10126 0.099165 0.416
0.10083 0.099403 0.417
0.10015 0.099403 0.417
0.099469 0.099403 0.417
0.098789 0.099403 0.417
0.098345 0.099642 0.418
0.097664 0.099642 0.418
0.096982 0.099642 0.418
0.096301 0.099642 0.418
0.09562 0.099642 0.418
0.094939 0.099642 0.418
0.094257 0.099642 0.418
0.093576 0.099642 0.418
0.092895 0.099642 0.418
0.092214 0.099642 0.418
0.091314 0.099403 0.417
0.090634 0.099403 0.417
0.089954 0.099403 0.417
0.089275 0.099403 0.417
0.088595 0.099403 0.417
0.087916 0.099403 0.417
0.087236 0.099403 0.417
0.086556 0.099403 0.417
0.085877 0.099403 0.417
0.085402 0.099642 0.418
0.08472 0.099642 0.418
0.084039 0.099642 0.418
0.083557 0.09988 0.419
0.082875 0.09988 0.419
0.082388 0.10012 0.42
0.081898 0.10036 0.421
0.081212 0.10036 0.421
0.080908 0.10083 0.423
0.080219 0.10083 0.423
0.080094 0.10155 0.426
0.079772 0.10203 0.428
0.079075 0.10203 0.428
0.078743 0.1025 0.43
0.078042 0.1025 0.43
0.077881 0.10322 0.433
0.077176 0.10322 0.433
0.076823 0.10369 0.435
0.076464 0.10417 0.437
0.075752 0.10417 0.437
0.075212 0.10441 0.438
0.074498 0.10441 0.438
0.073952 0.10465 0.439
0.073237 0.10465 0.439
0.072521 0.10465 0.439
0.07197 0.10489 0.44
0.071414 0.10512 0.441
0.070696 0.10512 0.441
0.070136 0.10536 0.442
0.069415 0.10536 0.442
0.068695 0.10536 0.442
0.067975 0.10536 0.442
0.067102 0.10512 0.441
0.066384 0.10512 0.441
0.065665 0.10512 0.441
0.064946 0.10512 0.441
0.14947 0.089964 0.38
0.14886 0.089964 0.38
0.14824 0.089964 0.38
0.14762 0.089964 0.38
0.14738 0.090201 0.381
0.14676 0.090201 0.381
0.14614 0.090201 0.381
0.14552 0.090201 0.381
0.1449 0.090201 0.381
0.14466 0.090438 0.382
0.14404 0.090438 0.382
0.14341 0.090438 0.382
0.14316 0.090675 0.383
0.14254 0.090675 0.383
0.14229 0.090911 0.384
0.14166 0.090911 0.384
0.14104 0.090911 0.384
0.14078 0.091148 0.385
0.14088 0.091622 0.387
0.14025 0.091622 0.387
0.13998 0.091858 0.388
0.13934 0.091858 0.388
0.13943 0.092332 0.39
0.13879 0.092332 0.39
0.13851 0.092569 0.391
0.13858 0.093042 0.393
0.13794 0.093042 0.393
0.138 0.093516 0.395
0.13735 0.093516 0.395
0.1374 0.093989 0.397
0.1371 0.094226 0.398
0.13645 0.094226 0.398
0.13648 0.094699 0.4
0.13583 0.094699 0.4
0.13585 0.095173 0.402
0.13554 0.09541 0.403
0.13488 0.09541 0.403
