ply
format ascii 1.0
comment Created by Open3D
element vertex 1981
property double x
property double y
property double z
end_header
-0.038972 0.010653 0.401
-0.039625 0.010653 0.401
-0.040178 0.010627 0.4
-0.040728 0.0106 0.399
-0.041378 0.0106 0.399
-0.041923 0.010574 0.398
-0.042572 0.010574 0.398
-0.043112 0.010547 0.397
-0.043649 0.01052 0.396
-0.044294 0.01052 0.396
-0.044826 0.010494 0.395
-0.04547 0.010494 0.395
-0.046113 0.010494 0.395
-0.046639 0.010467 0.394
-0.047161 0.010441 0.393
-0.047801 0.010441 0.393
-0.048319 0.010414 0.392
-0.048957 0.010414 0.392
-0.049596 0.010414 0.392
-0.050107 0.010388 0.391
-0.050744 0.010388 0.391
-0.051381 0.010388 0.391
-0.051886 0.010361 0.39
-0.052521 0.010361 0.39
-0.053157 0.010361 0.39
-0.053654 0.010334 0.389
-0.054288 0.010334 0.389
-0.054922 0.010334 0.389
-0.055556 0.010334 0.389
-0.05619 0.010334 0.389
-0.056678 0.010308 0.388
-0.05731 0.010308 0.388
-0.057943 0.010308 0.388
-0.058575 0.010308 0.388
-0.059055 0.010281 0.387
-0.059686 0.010281 0.387
-0.060316 0.010281 0.387
-0.060947 0.010281 0.387
-0.061578 0.010281 0.387
-0.062208 0.010281 0.387
-0.062839 0.010281 0.387
-0.06347 0.010281 0.387
-0.0641 0.010281 0.387
-0.064731 0.010281 0.387
-0.065362 0.010281 0.387
-0.066163 0.010308 0.388
-0.066795 0.010308 0.388
0.00664 0.010848 0.435
0.005508 0.010075 0.404
0.00485 0.010075 0.404
0.004171 0.010025 0.402
0.003507 0.01 0.401
0.002853 0.01 0.401
0.0022 0.01 0.401
0.001546 0.01 0.401
0.00089 0.009975 0.4
0.000239 0.009975 0.4
-0.000413 0.009975 0.4
-0.001065 0.009975 0.4
-0.001717 0.009975 0.4
-0.002369 0.009975 0.4
-0.003021 0.009975 0.4
-0.003673 0.009975 0.4
-0.004325 0.009975 0.4
-0.004977 0.009975 0.4
-0.005628 0.009975 0.4
-0.006265 0.00995 0.399
-0.006915 0.00995 0.399
-0.007565 0.00995 0.399
-0.008195 0.009925 0.398
-0.008843 0.009925 0.398
-0.009492 0.009925 0.398
-0.010141 0.009925 0.398
-0.010762 0.0099 0.397
-0.011409 0.0099 0.397
-0.012056 0.0099 0.397
-0.012703 0.0099 0.397
-0.01335 0.0099 0.397
-0.013997 0.0099 0.397
-0.014644 0.0099 0.397
-0.015253 0.009875 0.396
-0.015898 0.009875 0.396
-0.016543 0.009875 0.396
-0.017189 0.009875 0.396
-0.017834 0.009875 0.396
-0.018526 0.0099 0.397
-0.019173 0.0099 0.397
-0.01982 0.0099 0.397
-0.020467 0.0099 0.397
-0.021167 0.009925 0.398
-0.021816 0.009925 0.398
-0.022465 0.009925 0.398
-0.023113 0.009925 0.398
-0.023822 0.00995 0.399
-0.024472 0.00995 0.399
-0.025122 0.00995 0.399
-0.025772 0.00995 0.399
-0.026489 0.009975 0.4
-0.027141 0.009975 0.4
-0.027793 0.009975 0.4
-0.028516 0.01 0.401
-0.029169 0.01 0.401
-0.029823 0.01 0.401
-0.030476 0.01 0.401
-0.03113 0.01 0.401
-0.031862 0.010025 0.402
-0.032517 0.010025 0.402
-0.033173 0.010025 0.402
-0.033828 0.010025 0.402
-0.034483 0.010025 0.402
-0.035138 0.010025 0.402
-0.035793 0.010025 0.402
-0.036448 0.010025 0.402
-0.037011 0.01 0.401
-0.037665 0.01 0.401
-0.038318 0.01 0.401
-0.038972 0.01 0.401
-0.039625 0.01 0.401
-0.040178 0.009975 0.4
-0.040728 0.00995 0.399
-0.041378 0.00995 0.399
-0.041923 0.009925 0.398
-0.042572 0.009925 0.398
-0.043112 0.0099 0.397
-0.043649 0.009875 0.396
-0.044294 0.009875 0.396
-0.044826 0.00985 0.395
-0.04547 0.00985 0.395
-0.046113 0.00985 0.395
-0.046639 0.009825 0.394
-0.047161 0.0098 0.393
-0.047801 0.0098 0.393
-0.048319 0.009776 0.392
-0.048957 0.009776 0.392
-0.049596 0.009776 0.392
-0.050107 0.009751 0.391
-0.050744 0.009751 0.391
-0.051381 0.009751 0.391
-0.051886 0.009726 0.39
-0.052521 0.009726 0.39
-0.053157 0.009726 0.39
-0.053654 0.009701 0.389
-0.054288 0.009701 0.389
-0.054922 0.009701 0.389
-0.055556 0.009701 0.389
-0.05619 0.009701 0.389
-0.056678 0.009676 0.388
-0.05731 0.009676 0.388
-0.057943 0.009676 0.388
-0.058575 0.009676 0.388
-0.059055 0.009651 0.387
-0.059686 0.009651 0.387
-0.060316 0.009651 0.387
-0.060947 0.009651 0.387
-0.061578 0.009651 0.387
-0.062208 0.009651 0.387
-0.063001 0.009676 0.388
-0.06347 0.009651 0.387
-0.0641 0.009651 0.387
-0.064731 0.009651 0.387
-0.065362 0.009651 0.387
-0.066163 0.009676 0.388
-0.066795 0.009676 0.388
-0.067428 0.009676 0.388
0.010161 0.010116 0.434
0.009454 0.010116 0.434
0.008746 0.010116 0.434
0.008039 0.010116 0.434
0.007332 0.010116 0.434
0.006579 0.010046 0.431
0.005508 0.009417 0.404
0.00485 0.009417 0.404
0.00416 0.009347 0.401
0.003498 0.009323 0.4
0.002846 0.009323 0.4
0.002194 0.009323 0.4
0.001542 0.009323 0.4
0.00089 0.009323 0.4
0.000239 0.009323 0.4
-0.000413 0.009323 0.4
-0.001063 0.0093 0.399
-0.001713 0.0093 0.399
-0.002363 0.0093 0.399
-0.003013 0.0093 0.399
-0.003654 0.009277 0.398
-0.004303 0.009277 0.398
-0.004952 0.009277 0.398
-0.0056 0.009277 0.398
-0.006249 0.009277 0.398
-0.00688 0.009253 0.397
-0.007527 0.009253 0.397
-0.008174 0.009253 0.397
-0.008821 0.009253 0.397
-0.009468 0.009253 0.397
-0.01009 0.00923 0.396
-0.010735 0.00923 0.396
-0.01138 0.00923 0.396
-0.012026 0.00923 0.396
-0.012671 0.00923 0.396
-0.013317 0.00923 0.396
-0.013962 0.00923 0.396
-0.014607 0.00923 0.396
-0.015253 0.00923 0.396
-0.015898 0.00923 0.396
-0.016543 0.00923 0.396
-0.017189 0.00923 0.396
-0.017834 0.00923 0.396
-0.018479 0.00923 0.396
-0.019125 0.00923 0.396
-0.01982 0.009253 0.397
-0.020467 0.009253 0.397
-0.021114 0.009253 0.397
-0.021816 0.009277 0.398
-0.022465 0.009277 0.398
-0.023113 0.009277 0.398
-0.023822 0.0093 0.399
-0.024472 0.0093 0.399
-0.025122 0.0093 0.399
-0.025772 0.0093 0.399
-0.026489 0.009323 0.4
-0.027141 0.009323 0.4
-0.027793 0.009323 0.4
-0.028516 0.009347 0.401
-0.029169 0.009347 0.401
-0.029823 0.009347 0.401
-0.030476 0.009347 0.401
-0.03113 0.009347 0.401
-0.031862 0.00937 0.402
-0.032517 0.00937 0.402
-0.033173 0.00937 0.402
-0.033828 0.00937 0.402
-0.034483 0.00937 0.402
-0.035138 0.00937 0.402
-0.035793 0.00937 0.402
-0.036448 0.00937 0.402
-0.037011 0.009347 0.401
-0.037665 0.009347 0.401
-0.038318 0.009347 0.401
-0.038875 0.009323 0.4
-0.039526 0.009323 0.4
-0.040178 0.009323 0.4
-0.040728 0.0093 0.399
-0.041378 0.0093 0.399
-0.041923 0.009277 0.398
-0.042572 0.009277 0.398
-0.043112 0.009253 0.397
-0.043649 0.00923 0.396
-0.044294 0.00923 0.396
-0.044939 0.00923 0.396
-0.04547 0.009207 0.395
-0.046113 0.009207 0.395
-0.046639 0.009183 0.394
-0.047161 0.00916 0.393
-0.047801 0.00916 0.393
-0.048319 0.009137 0.392
-0.048957 0.009137 0.392
-0.049596 0.009137 0.392
-0.050107 0.009114 0.391
-0.050744 0.009114 0.391
-0.051381 0.009114 0.391
-0.051886 0.00909 0.39
-0.052521 0.00909 0.39
-0.053157 0.00909 0.39
-0.053654 0.009067 0.389
-0.054288 0.009067 0.389
-0.054922 0.009067 0.389
-0.055556 0.009067 0.389
-0.05619 0.009067 0.389
-0.056678 0.009044 0.388
-0.05731 0.009044 0.388
-0.057943 0.009044 0.388
-0.058575 0.009044 0.388
-0.059207 0.009044 0.388
-0.05984 0.009044 0.388
-0.060472 0.009044 0.388
-0.061104 0.009044 0.388
-0.061737 0.009044 0.388
-0.062369 0.009044 0.388
-0.063001 0.009044 0.388
-0.063634 0.009044 0.388
-0.064266 0.009044 0.388
-0.064898 0.009044 0.388
-0.065531 0.009044 0.388
-0.066163 0.009044 0.388
-0.066795 0.009044 0.388
-0.067428 0.009044 0.388
0.024438 0.009192 0.424
0.023747 0.009192 0.424
0.023056 0.009192 0.424
0.022365 0.009192 0.424
0.021674 0.009192 0.424
0.020983 0.009192 0.424
0.02034 0.009214 0.425
0.019647 0.009214 0.425
0.018954 0.009214 0.425
0.018262 0.009214 0.425
0.01761 0.009235 0.426
0.016916 0.009235 0.426
0.016222 0.009235 0.426
0.015528 0.009235 0.426
0.014833 0.009235 0.426
0.014172 0.009257 0.427
0.013476 0.009257 0.427
0.01281 0.009279 0.428
0.012113 0.009279 0.428
0.011442 0.0093 0.429
0.010743 0.0093 0.429
0.01002 0.009279 0.428
0.009236 0.009192 0.424
0.008545 0.009192 0.424
0.007817 0.009148 0.422
0.007078 0.009083 0.419
0.006395 0.009083 0.419
0.005508 0.008758 0.404
0.00485 0.008758 0.404
0.00416 0.008693 0.401
0.003498 0.008672 0.4
0.002846 0.008672 0.4
0.002194 0.008672 0.4
0.001538 0.00865 0.399
0.000888 0.00865 0.399
0.000238 0.00865 0.399
-0.000412 0.00865 0.399
-0.00106 0.008628 0.398
-0.001709 0.008628 0.398
-0.002357 0.008628 0.398
-0.003006 0.008628 0.398
-0.003645 0.008607 0.397
-0.004292 0.008607 0.397
-0.004939 0.008607 0.397
-0.005586 0.008607 0.397
-0.006249 0.008628 0.398
-0.00688 0.008607 0.397
-0.007527 0.008607 0.397
-0.008174 0.008607 0.397
-0.008821 0.008607 0.397
-0.009468 0.008607 0.397
-0.01009 0.008585 0.396
-0.010735 0.008585 0.396
-0.01138 0.008585 0.396
-0.012026 0.008585 0.396
-0.012671 0.008585 0.396
-0.013317 0.008585 0.396
-0.013962 0.008585 0.396
-0.014607 0.008585 0.396
-0.015253 0.008585 0.396
-0.015898 0.008585 0.396
-0.016543 0.008585 0.396
-0.017189 0.008585 0.396
-0.017834 0.008585 0.396
-0.018479 0.008585 0.396
-0.019125 0.008585 0.396
-0.01982 0.008607 0.397
-0.020467 0.008607 0.397
-0.021114 0.008607 0.397
-0.021816 0.008628 0.398
-0.022465 0.008628 0.398
-0.023113 0.008628 0.398
-0.023822 0.00865 0.399
-0.024472 0.00865 0.399
-0.025122 0.00865 0.399
-0.025772 0.00865 0.399
-0.026489 0.008672 0.4
-0.027141 0.008672 0.4
-0.027793 0.008672 0.4
-0.028516 0.008693 0.401
-0.029169 0.008693 0.401
-0.029823 0.008693 0.401
-0.030476 0.008693 0.401
-0.03113 0.008693 0.401
-0.031862 0.008715 0.402
-0.032517 0.008715 0.402
-0.033173 0.008715 0.402
-0.033828 0.008715 0.402
-0.034483 0.008715 0.402
-0.035138 0.008715 0.402
-0.035793 0.008715 0.402
-0.036448 0.008715 0.402
-0.037011 0.008693 0.401
-0.037665 0.008693 0.401
-0.038318 0.008693 0.401
-0.038875 0.008672 0.4
-0.039526 0.008672 0.4
-0.040178 0.008672 0.4
-0.040728 0.00865 0.399
-0.041378 0.00865 0.399
-0.041923 0.008628 0.398
-0.042465 0.008607 0.397
-0.043112 0.008607 0.397
-0.043649 0.008585 0.396
-0.044294 0.008585 0.396
-0.044826 0.008563 0.395
-0.04547 0.008563 0.395
-0.046113 0.008563 0.395
-0.046639 0.008541 0.394
-0.047161 0.00852 0.393
-0.047801 0.00852 0.393
-0.048319 0.008498 0.392
-0.048957 0.008498 0.392
-0.049596 0.008498 0.392
-0.050107 0.008476 0.391
-0.050744 0.008476 0.391
-0.051381 0.008476 0.391
-0.051886 0.008455 0.39
-0.052521 0.008455 0.39
-0.053157 0.008455 0.39
-0.053654 0.008433 0.389
-0.054288 0.008433 0.389
-0.054922 0.008433 0.389
-0.055556 0.008433 0.389
-0.05619 0.008433 0.389
-0.056678 0.008411 0.388
-0.05731 0.008411 0.388
-0.057943 0.008411 0.388
-0.058575 0.008411 0.388
-0.059207 0.008411 0.388
-0.05984 0.008411 0.388
-0.060472 0.008411 0.388
-0.061104 0.008411 0.388
-0.061737 0.008411 0.388
-0.062369 0.008411 0.388
-0.063001 0.008411 0.388
-0.063634 0.008411 0.388
-0.064266 0.008411 0.388
-0.064898 0.008411 0.388
-0.065531 0.008411 0.388
-0.066163 0.008411 0.388
-0.066795 0.008411 0.388
-0.067428 0.008411 0.388
0.031585 0.008381 0.418
0.030904 0.008381 0.418
0.024438 0.008501 0.424
0.023747 0.008501 0.424
0.023056 0.008501 0.424
0.022365 0.008501 0.424
0.021674 0.008501 0.424
0.020983 0.008501 0.424
0.02034 0.008521 0.425
0.019647 0.008521 0.425
0.018954 0.008521 0.425
0.018262 0.008521 0.425
0.01761 0.008541 0.426
0.016916 0.008541 0.426
0.016222 0.008541 0.426
0.015528 0.008541 0.426
0.014833 0.008541 0.426
0.014172 0.008561 0.427
0.013476 0.008561 0.427
0.01281 0.008581 0.428
0.012113 0.008581 0.428
0.011442 0.008601 0.429
0.010743 0.008601 0.429
0.01002 0.008581 0.428
0.009236 0.008501 0.424
0.008545 0.008501 0.424
0.007817 0.008461 0.422
0.007078 0.008401 0.419
0.006395 0.008401 0.419
0.005508 0.0081 0.404
0.00485 0.0081 0.404
0.004171 0.00806 0.402
0.003498 0.00802 0.4
0.002846 0.00802 0.4
0.002194 0.00802 0.4
0.001538 0.008 0.399
0.000888 0.008 0.399
0.000238 0.008 0.399
-0.000412 0.008 0.399
-0.00106 0.00798 0.398
-0.001709 0.00798 0.398
-0.002357 0.00798 0.398
-0.003006 0.00798 0.398
-0.003645 0.00796 0.397
-0.004292 0.00796 0.397
-0.004939 0.00796 0.397
-0.005586 0.00796 0.397
-0.006233 0.00796 0.397
-0.006863 0.00794 0.396
-0.007508 0.00794 0.396
-0.008154 0.00794 0.396
-0.008777 0.00792 0.395
-0.009421 0.00792 0.395
-0.010064 0.00792 0.395
-0.010708 0.00792 0.395
-0.011352 0.00792 0.395
-0.011995 0.00792 0.395
-0.012639 0.00792 0.395
-0.013283 0.00792 0.395
-0.013927 0.00792 0.395
-0.01457 0.00792 0.395
-0.015214 0.00792 0.395
-0.015858 0.00792 0.395
-0.016502 0.00792 0.395
-0.017145 0.00792 0.395
-0.017789 0.00792 0.395
-0.018479 0.00794 0.396
-0.019125 0.00794 0.396
-0.01977 0.00794 0.396
-0.020416 0.00794 0.396
-0.021114 0.00796 0.397
-0.021761 0.00796 0.397
-0.022408 0.00796 0.397
-0.023113 0.00798 0.398
-0.023762 0.00798 0.398
-0.02441 0.00798 0.398
-0.025122 0.008 0.399
-0.025772 0.008 0.399
-0.026489 0.00802 0.4
-0.027141 0.00802 0.4
-0.027793 0.00802 0.4
-0.028516 0.00804 0.401
-0.029169 0.00804 0.401
-0.029823 0.00804 0.401
-0.030476 0.00804 0.401
-0.03113 0.00804 0.401
-0.031862 0.00806 0.402
-0.032517 0.00806 0.402
-0.033173 0.00806 0.402
-0.033828 0.00806 0.402
-0.034483 0.00806 0.402
-0.035138 0.00806 0.402
-0.035793 0.00806 0.402
-0.036358 0.00804 0.401
-0.037011 0.00804 0.401
-0.037665 0.00804 0.401
-0.038318 0.00804 0.401
-0.038875 0.00802 0.4
-0.039526 0.00802 0.4
-0.040178 0.00802 0.4
-0.040728 0.008 0.399
-0.041378 0.008 0.399
-0.041923 0.00798 0.398
-0.042465 0.00796 0.397
-0.043112 0.00796 0.397
-0.043649 0.00794 0.396
-0.044294 0.00794 0.396
-0.044826 0.00792 0.395
-0.045355 0.0079 0.394
-0.045997 0.0079 0.394
-0.046639 0.0079 0.394
-0.047161 0.007879 0.393
-0.047801 0.007879 0.393
-0.048319 0.007859 0.392
-0.048957 0.007859 0.392
-0.049596 0.007859 0.392
-0.050107 0.007839 0.391
-0.050744 0.007839 0.391
-0.051381 0.007839 0.391
-0.051886 0.007819 0.39
-0.052521 0.007819 0.39
-0.053157 0.007819 0.39
-0.053792 0.007819 0.39
-0.054428 0.007819 0.39
-0.054922 0.007799 0.389
-0.055556 0.007799 0.389
-0.05619 0.007799 0.389
-0.056824 0.007799 0.389
-0.05731 0.007779 0.388
-0.057943 0.007779 0.388
-0.058575 0.007779 0.388
-0.059207 0.007779 0.388
-0.05984 0.007779 0.388
-0.060472 0.007779 0.388
-0.061104 0.007779 0.388
-0.061737 0.007779 0.388
-0.062369 0.007779 0.388
-0.063001 0.007779 0.388
-0.063634 0.007779 0.388
-0.064266 0.007779 0.388
-0.064898 0.007779 0.388
-0.065531 0.007779 0.388
-0.066163 0.007779 0.388
-0.066795 0.007779 0.388
-0.067428 0.007779 0.388
0.031585 0.0077 0.418
0.030904 0.0077 0.418
0.02438 0.007792 0.423
0.023691 0.007792 0.423
0.023056 0.00781 0.424
0.022365 0.00781 0.424
0.021674 0.00781 0.424
0.020983 0.00781 0.424
0.020292 0.00781 0.424
0.019601 0.00781 0.424
0.01891 0.00781 0.424
0.018219 0.00781 0.424
0.017569 0.007829 0.425
0.016876 0.007829 0.425
0.016184 0.007829 0.425
0.015491 0.007829 0.425
0.014799 0.007829 0.425
0.014106 0.007829 0.425
0.013413 0.007829 0.425
0.012751 0.007847 0.426
0.012056 0.007847 0.426
0.011362 0.007847 0.426
0.010693 0.007865 0.427
0.00995 0.007829 0.425
0.00917 0.007755 0.421
0.008424 0.0077 0.418
0.007743 0.0077 0.418
0.007061 0.0077 0.418
0.006212 0.007497 0.407
0.005508 0.007442 0.404
0.00485 0.007442 0.404
0.004171 0.007405 0.402
0.003498 0.007368 0.4
0.002846 0.007368 0.4
0.002194 0.007368 0.4
0.001538 0.00735 0.399
0.000888 0.00735 0.399
0.000238 0.00735 0.399
-0.000412 0.00735 0.399
-0.00106 0.007331 0.398
-0.001709 0.007331 0.398
-0.002357 0.007331 0.398
-0.002998 0.007313 0.397
-0.003645 0.007313 0.397
-0.004292 0.007313 0.397
-0.004927 0.007294 0.396
-0.005572 0.007294 0.396
-0.006218 0.007294 0.396
-0.006846 0.007276 0.395
-0.007489 0.007276 0.395
-0.008133 0.007276 0.395
-0.008755 0.007258 0.394
-0.009397 0.007258 0.394
-0.010039 0.007258 0.394
-0.010681 0.007258 0.394
-0.011323 0.007258 0.394
-0.011965 0.007258 0.394
-0.012607 0.007258 0.394
-0.013249 0.007258 0.394
-0.013891 0.007258 0.394
-0.014534 0.007258 0.394
-0.015176 0.007258 0.394
-0.015818 0.007258 0.394
-0.01646 0.007258 0.394
-0.017102 0.007258 0.394
-0.017789 0.007276 0.395
-0.018433 0.007276 0.395
-0.019077 0.007276 0.395
-0.01977 0.007294 0.396
-0.020416 0.007294 0.396
-0.021061 0.007294 0.396
-0.021761 0.007313 0.397
-0.022408 0.007313 0.397
-0.023113 0.007331 0.398
-0.023762 0.007331 0.398
-0.02441 0.007331 0.398
-0.025122 0.00735 0.399
-0.025772 0.00735 0.399
-0.026489 0.007368 0.4
-0.027141 0.007368 0.4
-0.027793 0.007368 0.4
-0.028444 0.007368 0.4
-0.029169 0.007387 0.401
-0.029823 0.007387 0.401
-0.030476 0.007387 0.401
-0.03113 0.007387 0.401
-0.031862 0.007405 0.402
-0.032517 0.007405 0.402
-0.033173 0.007405 0.402
-0.033828 0.007405 0.402
-0.034483 0.007405 0.402
-0.035138 0.007405 0.402
-0.035793 0.007405 0.402
-0.036358 0.007387 0.401
-0.037011 0.007387 0.401
-0.037665 0.007387 0.401
-0.038318 0.007387 0.401
-0.038875 0.007368 0.4
-0.039526 0.007368 0.4
-0.040178 0.007368 0.4
-0.040728 0.00735 0.399
-0.041378 0.00735 0.399
-0.041923 0.007331 0.398
-0.042465 0.007313 0.397
-0.043112 0.007313 0.397
-0.043649 0.007294 0.396
-0.044294 0.007294 0.396
-0.044826 0.007276 0.395
-0.045355 0.007258 0.394
-0.045997 0.007258 0.394
-0.046639 0.007258 0.394
-0.047161 0.007239 0.393
-0.047801 0.007239 0.393
-0.048319 0.007221 0.392
-0.048957 0.007221 0.392
-0.049596 0.007221 0.392
-0.050107 0.007202 0.391
-0.050744 0.007202 0.391
-0.051381 0.007202 0.391
-0.051886 0.007184 0.39
-0.052521 0.007184 0.39
-0.053157 0.007184 0.39
-0.053792 0.007184 0.39
-0.054428 0.007184 0.39
-0.054922 0.007165 0.389
-0.055556 0.007165 0.389
-0.05619 0.007165 0.389
-0.056824 0.007165 0.389
-0.05731 0.007147 0.388
-0.057943 0.007147 0.388
-0.058575 0.007147 0.388
-0.059207 0.007147 0.388
-0.05984 0.007147 0.388
-0.060472 0.007147 0.388
-0.061104 0.007147 0.388
-0.061737 0.007147 0.388
-0.062369 0.007147 0.388
-0.063001 0.007147 0.388
-0.063634 0.007147 0.388
-0.064266 0.007147 0.388
-0.064898 0.007147 0.388
-0.065531 0.007147 0.388
-0.066163 0.007147 0.388
-0.066795 0.007147 0.388
-0.067428 0.007147 0.388
0.037846 0.006918 0.412
0.037175 0.006918 0.412
0.036592 0.006935 0.413
0.035919 0.006935 0.413
0.035331 0.006951 0.414
0.034657 0.006951 0.414
0.034064 0.006968 0.415
0.033468 0.006985 0.416
0.03279 0.006985 0.416
0.032112 0.006985 0.416
0.03151 0.007002 0.417
0.03083 0.007002 0.417
0.030223 0.007019 0.418
0.029542 0.007019 0.418
0.028929 0.007035 0.419
0.028314 0.007052 0.42
0.02763 0.007052 0.42
0.027009 0.007069 0.421
0.026323 0.007069 0.421
0.025698 0.007086 0.422
0.02501 0.007086 0.422
0.024322 0.007086 0.422
0.023635 0.007086 0.422
0.023001 0.007103 0.423
0.022312 0.007103 0.423
0.021623 0.007103 0.423
0.020933 0.007103 0.423
0.020292 0.007119 0.424
0.019601 0.007119 0.424
0.01891 0.007119 0.424
0.018219 0.007119 0.424
0.017528 0.007119 0.424
0.016837 0.007119 0.424
0.016146 0.007119 0.424
0.015455 0.007119 0.424
0.014764 0.007119 0.424
0.014073 0.007119 0.424
0.013382 0.007119 0.424
0.012691 0.007119 0.424
0.012 0.007119 0.424
0.011309 0.007119 0.424
0.010568 0.007086 0.422
0.00988 0.007086 0.422
0.009127 0.007035 0.419
0.008363 0.006968 0.415
0.007687 0.006968 0.415
0.007011 0.006968 0.415
0.006212 0.006834 0.407
0.005508 0.006784 0.404
0.00485 0.006784 0.404
0.004171 0.00675 0.402
0.003498 0.006716 0.4
0.002846 0.006716 0.4
0.002194 0.006716 0.4
0.001538 0.0067 0.399
0.000888 0.0067 0.399
0.000238 0.0067 0.399
-0.000412 0.0067 0.399
-0.00106 0.006683 0.398
-0.001709 0.006683 0.398
-0.002357 0.006683 0.398
-0.002998 0.006666 0.397
-0.003645 0.006666 0.397
-0.004292 0.006666 0.397
-0.004927 0.006649 0.396
-0.005572 0.006649 0.396
-0.006218 0.006649 0.396
-0.006846 0.006632 0.395
-0.007489 0.006632 0.395
-0.008133 0.006632 0.395
-0.008755 0.006616 0.394
-0.009397 0.006616 0.394
-0.010039 0.006616 0.394
-0.010681 0.006616 0.394
-0.011323 0.006616 0.394
-0.011965 0.006616 0.394
-0.012607 0.006616 0.394
-0.013249 0.006616 0.394
-0.013891 0.006616 0.394
-0.014534 0.006616 0.394
-0.015176 0.006616 0.394
-0.015818 0.006616 0.394
-0.01646 0.006616 0.394
-0.017102 0.006616 0.394
-0.017789 0.006632 0.395
-0.018433 0.006632 0.395
-0.019077 0.006632 0.395
-0.01977 0.006649 0.396
-0.020416 0.006649 0.396
-0.021061 0.006649 0.396
-0.021761 0.006666 0.397
-0.022408 0.006666 0.397
-0.023113 0.006683 0.398
-0.023762 0.006683 0.398
-0.02441 0.006683 0.398
-0.025122 0.0067 0.399
-0.025772 0.0067 0.399
-0.026489 0.006716 0.4
-0.027141 0.006716 0.4
-0.027793 0.006716 0.4
-0.028444 0.006716 0.4
-0.029169 0.006733 0.401
-0.029823 0.006733 0.401
-0.030476 0.006733 0.401
-0.03113 0.006733 0.401
-0.031783 0.006733 0.401
-0.032517 0.00675 0.402
-0.033173 0.00675 0.402
-0.033828 0.00675 0.402
-0.034483 0.00675 0.402
-0.035051 0.006733 0.401
-0.035704 0.006733 0.401
-0.036358 0.006733 0.401
-0.037011 0.006733 0.401
-0.037665 0.006733 0.401
-0.038318 0.006733 0.401
-0.038875 0.006716 0.4
-0.039526 0.006716 0.4
-0.040078 0.0067 0.399
-0.040728 0.0067 0.399
-0.041378 0.0067 0.399
-0.041923 0.006683 0.398
-0.042465 0.006666 0.397
-0.043112 0.006666 0.397
-0.043649 0.006649 0.396
-0.044294 0.006649 0.396
-0.044826 0.006632 0.395
-0.045355 0.006616 0.394
-0.045997 0.006616 0.394
-0.04652 0.006599 0.393
-0.047161 0.006599 0.393
-0.047801 0.006599 0.393
-0.048319 0.006582 0.392
-0.048957 0.006582 0.392
-0.049596 0.006582 0.392
-0.050107 0.006565 0.391
-0.050744 0.006565 0.391
-0.051381 0.006565 0.391
-0.051886 0.006548 0.39
-0.052521 0.006548 0.39
-0.053157 0.006548 0.39
-0.053792 0.006548 0.39
-0.054428 0.006548 0.39
-0.054922 0.006532 0.389
-0.055556 0.006532 0.389
-0.05619 0.006532 0.389
-0.056824 0.006532 0.389
-0.05731 0.006515 0.388
-0.057943 0.006515 0.388
-0.058575 0.006515 0.388
-0.059207 0.006515 0.388
-0.05984 0.006515 0.388
-0.060472 0.006515 0.388
-0.061104 0.006515 0.388
-0.061737 0.006515 0.388
-0.062369 0.006515 0.388
-0.063001 0.006515 0.388
-0.063634 0.006515 0.388
-0.0641 0.006498 0.387
-0.064731 0.006498 0.387
-0.065362 0.006498 0.387
-0.065993 0.006498 0.387
-0.066795 0.006515 0.388
-0.067428 0.006515 0.388
0.037846 0.006247 0.412
0.037175 0.006247 0.412
0.036592 0.006262 0.413
0.035919 0.006262 0.413
0.035331 0.006277 0.414
0.034657 0.006277 0.414
0.034064 0.006292 0.415
0.033468 0.006307 0.416
0.03279 0.006307 0.416
0.032112 0.006307 0.416
0.03151 0.006322 0.417
0.03083 0.006322 0.417
0.030223 0.006338 0.418
0.029542 0.006338 0.418
0.028929 0.006353 0.419
0.028314 0.006368 0.42
0.02763 0.006368 0.42
0.027009 0.006383 0.421
0.026323 0.006383 0.421
0.025698 0.006398 0.422
0.02501 0.006398 0.422
0.024322 0.006398 0.422
0.023635 0.006398 0.422
0.023001 0.006413 0.423
0.022312 0.006413 0.423
0.021623 0.006413 0.423
0.020933 0.006413 0.423
0.020292 0.006429 0.424
0.019601 0.006429 0.424
0.01891 0.006429 0.424
0.018219 0.006429 0.424
0.017528 0.006429 0.424
0.016837 0.006429 0.424
0.016146 0.006429 0.424
0.015455 0.006429 0.424
0.014764 0.006429 0.424
0.014073 0.006429 0.424
0.013382 0.006429 0.424
0.012691 0.006429 0.424
0.012 0.006429 0.424
0.011309 0.006429 0.424
0.010568 0.006398 0.422
0.00988 0.006398 0.422
0.009127 0.006353 0.419
0.008363 0.006292 0.415
0.007687 0.006292 0.415
0.007011 0.006292 0.415
0.006212 0.006171 0.407
0.005508 0.006125 0.404
0.00485 0.006125 0.404
0.004171 0.006095 0.402
0.003498 0.006065 0.4
0.002846 0.006065 0.4
0.002194 0.006065 0.4
0.001538 0.006049 0.399
0.000888 0.006049 0.399
0.000237 0.006034 0.398
-0.000411 0.006034 0.398
-0.00106 0.006034 0.398
-0.001704 0.006019 0.397
-0.002351 0.006019 0.397
-0.002998 0.006019 0.397
-0.003636 0.006004 0.396
-0.004281 0.006004 0.396
-0.004927 0.006004 0.396
-0.005558 0.005989 0.395
-0.006202 0.005989 0.395
-0.006846 0.005989 0.395
-0.00747 0.005974 0.394
-0.008112 0.005974 0.394
-0.008755 0.005974 0.394
-0.009397 0.005974 0.394
-0.010013 0.005959 0.393
-0.010654 0.005959 0.393
-0.011294 0.005959 0.393
-0.011935 0.005959 0.393
-0.012575 0.005959 0.393
-0.013216 0.005959 0.393
-0.013856 0.005959 0.393
-0.014497 0.005959 0.393
-0.015137 0.005959 0.393
-0.015778 0.005959 0.393
-0.01646 0.005974 0.394
-0.017102 0.005974 0.394
-0.017744 0.005974 0.394
-0.018433 0.005989 0.395
-0.019077 0.005989 0.395
-0.01972 0.005989 0.395
-0.020416 0.006004 0.396
-0.021061 0.006004 0.396
-0.021706 0.006004 0.396
-0.022352 0.006004 0.396
-0.023055 0.006019 0.397
-0.023762 0.006034 0.398
-0.02441 0.006034 0.398
-0.025059 0.006034 0.398
-0.025708 0.006034 0.398
-0.026423 0.006049 0.399
-0.027141 0.006065 0.4
-0.027793 0.006065 0.4
-0.028444 0.006065 0.4
-0.029169 0.00608 0.401
-0.029823 0.00608 0.401
-0.030476 0.00608 0.401
-0.03113 0.00608 0.401
-0.031783 0.00608 0.401
-0.032437 0.00608 0.401
-0.03309 0.00608 0.401
-0.033744 0.00608 0.401
-0.034397 0.00608 0.401
-0.035051 0.00608 0.401
-0.035704 0.00608 0.401
-0.036358 0.00608 0.401
-0.037011 0.00608 0.401
-0.037665 0.00608 0.401
-0.038223 0.006065 0.4
-0.038875 0.006065 0.4
-0.039526 0.006065 0.4
-0.040078 0.006049 0.399
-0.040626 0.006034 0.398
-0.041275 0.006034 0.398
-0.041818 0.006019 0.397
-0.042358 0.006004 0.396
-0.043003 0.006004 0.396
-0.043649 0.006004 0.396
-0.044182 0.005989 0.395
-0.044826 0.005989 0.395
-0.045355 0.005974 0.394
-0.045997 0.005974 0.394
-0.04652 0.005959 0.393
-0.047041 0.005943 0.392
-0.04768 0.005943 0.392
-0.048319 0.005943 0.392
-0.048833 0.005928 0.391
-0.04947 0.005928 0.391
-0.050107 0.005928 0.391
-0.050744 0.005928 0.391
-0.051381 0.005928 0.391
-0.051886 0.005913 0.39
-0.052521 0.005913 0.39
-0.053157 0.005913 0.39
-0.053792 0.005913 0.39
-0.054428 0.005913 0.39
-0.054922 0.005898 0.389
-0.055556 0.005898 0.389
-0.05619 0.005898 0.389
-0.056824 0.005898 0.389
-0.05731 0.005883 0.388
-0.057943 0.005883 0.388
-0.058575 0.005883 0.388
-0.059207 0.005883 0.388
-0.05984 0.005883 0.388
-0.060472 0.005883 0.388
-0.061104 0.005883 0.388
-0.061737 0.005883 0.388
-0.062369 0.005883 0.388
-0.063001 0.005883 0.388
-0.063634 0.005883 0.388
-0.0641 0.005868 0.387
-0.064731 0.005868 0.387
-0.065362 0.005868 0.387
-0.065993 0.005868 0.387
-0.066795 0.005883 0.388
-0.067428 0.005883 0.388
0.039094 0.005562 0.411
0.038424 0.005562 0.411
0.037754 0.005562 0.411
0.037085 0.005562 0.411
0.036503 0.005575 0.412
0.035832 0.005575 0.412
0.035246 0.005589 0.413
0.034657 0.005602 0.414
0.033982 0.005602 0.414
0.033388 0.005616 0.415
0.032711 0.005616 0.415
0.032035 0.005616 0.415
0.031434 0.005629 0.416
0.030756 0.005629 0.416
0.030151 0.005643 0.417
0.029471 0.005643 0.417
0.02886 0.005657 0.418
0.028247 0.00567 0.419
0.027564 0.00567 0.419
0.026945 0.005684 0.42
0.026323 0.005697 0.421
0.025637 0.005697 0.421
0.02501 0.005711 0.422
0.024322 0.005711 0.422
0.023635 0.005711 0.422
0.023001 0.005724 0.423
0.022312 0.005724 0.423
0.021623 0.005724 0.423
0.020933 0.005724 0.423
0.020244 0.005724 0.423
0.019555 0.005724 0.423
0.018865 0.005724 0.423
0.018219 0.005738 0.424
0.017528 0.005738 0.424
0.016837 0.005738 0.424
0.016146 0.005738 0.424
0.015418 0.005724 0.423
0.014729 0.005724 0.423
0.01404 0.005724 0.423
0.01335 0.005724 0.423
0.012631 0.005711 0.422
0.011943 0.005711 0.422
0.011229 0.005697 0.421
0.010493 0.00567 0.419
0.00981 0.00567 0.419
0.009062 0.005629 0.416
0.008323 0.005589 0.413
0.00765 0.005589 0.413
0.006926 0.005548 0.41
0.006212 0.005508 0.407
0.005508 0.005467 0.404
0.00485 0.005467 0.404
0.004171 0.00544 0.402
0.003498 0.005413 0.4
0.002846 0.005413 0.4
0.002194 0.005413 0.4
0.001538 0.005399 0.399
0.000888 0.005399 0.399
0.000237 0.005386 0.398
-0.000411 0.005386 0.398
-0.00106 0.005386 0.398
-0.001704 0.005372 0.397
-0.002351 0.005372 0.397
-0.002998 0.005372 0.397
-0.003636 0.005359 0.396
-0.004281 0.005359 0.396
-0.004914 0.005345 0.395
-0.005558 0.005345 0.395
-0.006202 0.005345 0.395
-0.006828 0.005332 0.394
-0.007451 0.005318 0.393
-0.008092 0.005318 0.393
-0.008732 0.005318 0.393
-0.009373 0.005318 0.393
-0.010013 0.005318 0.393
-0.010654 0.005318 0.393
-0.011294 0.005318 0.393
-0.011904 0.005305 0.392
-0.012543 0.005305 0.392
-0.013182 0.005305 0.392
-0.013821 0.005305 0.392
-0.014497 0.005318 0.393
-0.015137 0.005318 0.393
-0.015778 0.005318 0.393
-0.016418 0.005318 0.393
-0.017059 0.005318 0.393
-0.017744 0.005332 0.394
-0.018386 0.005332 0.394
-0.019028 0.005332 0.394
-0.01972 0.005345 0.395
-0.020364 0.005345 0.395
-0.021008 0.005345 0.395
-0.021706 0.005359 0.396
-0.022352 0.005359 0.396
-0.023055 0.005372 0.397
-0.023762 0.005386 0.398
-0.02441 0.005386 0.398
-0.025059 0.005386 0.398
-0.025708 0.005386 0.398
-0.026423 0.005399 0.399
-0.027141 0.005413 0.4
-0.027793 0.005413 0.4
-0.028444 0.005413 0.4
-0.029169 0.005426 0.401
-0.029823 0.005426 0.401
-0.030476 0.005426 0.401
-0.03113 0.005426 0.401
-0.031783 0.005426 0.401
-0.032437 0.005426 0.401
-0.03309 0.005426 0.401
-0.033744 0.005426 0.401
-0.034397 0.005426 0.401
-0.035051 0.005426 0.401
-0.035704 0.005426 0.401
-0.036358 0.005426 0.401
-0.037011 0.005426 0.401
-0.037665 0.005426 0.401
-0.038223 0.005413 0.4
-0.038875 0.005413 0.4
-0.039526 0.005413 0.4
-0.040078 0.005399 0.399
-0.040626 0.005386 0.398
-0.041275 0.005386 0.398
-0.041818 0.005372 0.397
-0.042358 0.005359 0.396
-0.043003 0.005359 0.396
-0.043649 0.005359 0.396
-0.044182 0.005345 0.395
-0.044826 0.005345 0.395
-0.045355 0.005332 0.394
-0.045997 0.005332 0.394
-0.04652 0.005318 0.393
-0.047041 0.005305 0.392
-0.04768 0.005305 0.392
-0.048319 0.005305 0.392
-0.048833 0.005291 0.391
-0.04947 0.005291 0.391
-0.050107 0.005291 0.391
-0.050744 0.005291 0.391
-0.051381 0.005291 0.391
-0.051886 0.005278 0.39
-0.052521 0.005278 0.39
-0.053157 0.005278 0.39
-0.053792 0.005278 0.39
-0.054428 0.005278 0.39
-0.054922 0.005264 0.389
-0.055556 0.005264 0.389
-0.05619 0.005264 0.389
-0.056824 0.005264 0.389
-0.05731 0.005251 0.388
-0.057943 0.005251 0.388
-0.058575 0.005251 0.388
-0.059207 0.005251 0.388
-0.05984 0.005251 0.388
-0.060472 0.005251 0.388
-0.061104 0.005251 0.388
-0.061737 0.005251 0.388
-0.062369 0.005251 0.388
-0.063001 0.005251 0.388
-0.063634 0.005251 0.388
-0.0641 0.005237 0.387
-0.064731 0.005237 0.387
-0.065362 0.005237 0.387
-0.065993 0.005237 0.387
-0.066795 0.005251 0.388
-0.067428 0.005251 0.388
0.043357 0.004845 0.407
0.042693 0.004845 0.407
0.04203 0.004845 0.407
0.041468 0.004856 0.408
0.040804 0.004856 0.408
0.040335 0.00488 0.41
0.039667 0.00488 0.41
0.038999 0.00488 0.41
0.038331 0.00488 0.41
0.037663 0.00488 0.41
0.037085 0.004892 0.411
0.036503 0.004904 0.412
0.035832 0.004904 0.412
0.035246 0.004916 0.413
0.034657 0.004928 0.414
0.033982 0.004928 0.414
0.033307 0.004928 0.414
0.032632 0.004928 0.414
0.032035 0.00494 0.415
0.031434 0.004952 0.416
0.030756 0.004952 0.416
0.030151 0.004964 0.417
0.029471 0.004964 0.417
0.02886 0.004975 0.418
0.028247 0.004987 0.419
0.027564 0.004987 0.419
0.026945 0.004999 0.42
0.026323 0.005011 0.421
0.025637 0.005011 0.421
0.02501 0.005023 0.422
0.024322 0.005023 0.422
0.023635 0.005023 0.422
0.022947 0.005023 0.422
0.022259 0.005023 0.422
0.021571 0.005023 0.422
0.020884 0.005023 0.422
0.020244 0.005035 0.423
0.019555 0.005035 0.423
0.018865 0.005035 0.423
0.018176 0.005035 0.423
0.017486 0.005035 0.423
0.016797 0.005035 0.423
0.016108 0.005035 0.423
0.015418 0.005035 0.423
0.014729 0.005035 0.423
0.01404 0.005035 0.423
0.01335 0.005035 0.423
0.012631 0.005023 0.422
0.011943 0.005023 0.422
0.011229 0.005011 0.421
0.010493 0.004987 0.419
0.00981 0.004987 0.419
0.009062 0.004952 0.416
0.008323 0.004916 0.413
0.00765 0.004916 0.413
0.006926 0.00488 0.41
0.006228 0.004856 0.408
0.005522 0.004821 0.405
0.004862 0.004821 0.405
0.004171 0.004785 0.402
0.003507 0.004773 0.401
0.002853 0.004773 0.401
0.002194 0.004761 0.4
0.001542 0.004761 0.4
0.00089 0.004761 0.4
0.000238 0.004749 0.399
-0.000412 0.004749 0.399
-0.00106 0.004737 0.398
-0.001704 0.004725 0.397
-0.002351 0.004725 0.397
-0.002998 0.004725 0.397
-0.003636 0.004714 0.396
-0.004281 0.004714 0.396
-0.004914 0.004702 0.395
-0.005558 0.004702 0.395
-0.006202 0.004702 0.395
-0.006828 0.00469 0.394
-0.007451 0.004678 0.393
-0.008092 0.004678 0.393
-0.008732 0.004678 0.393
-0.009373 0.004678 0.393
-0.010013 0.004678 0.393
-0.010654 0.004678 0.393
-0.011294 0.004678 0.393
-0.011904 0.004666 0.392
-0.012543 0.004666 0.392
-0.013182 0.004666 0.392
-0.013821 0.004666 0.392
-0.014497 0.004678 0.393
-0.015137 0.004678 0.393
-0.015778 0.004678 0.393
-0.016418 0.004678 0.393
-0.017059 0.004678 0.393
-0.017744 0.00469 0.394
-0.018386 0.00469 0.394
-0.019028 0.00469 0.394
-0.01972 0.004702 0.395
-0.020364 0.004702 0.395
-0.021008 0.004702 0.395
-0.021706 0.004714 0.396
-0.022352 0.004714 0.396
-0.023055 0.004725 0.397
-0.023702 0.004725 0.397
-0.024349 0.004725 0.397
-0.025059 0.004737 0.398
-0.025708 0.004737 0.398
-0.026356 0.004737 0.398
-0.027073 0.004749 0.399
-0.027723 0.004749 0.399
-0.028444 0.004761 0.4
-0.029096 0.004761 0.4
-0.029748 0.004761 0.4
-0.0304 0.004761 0.4
-0.031052 0.004761 0.4
-0.031704 0.004761 0.4
-0.032437 0.004773 0.401
-0.03309 0.004773 0.401
-0.033744 0.004773 0.401
-0.034397 0.004773 0.401
-0.035051 0.004773 0.401
-0.035704 0.004773 0.401
-0.036267 0.004761 0.4
-0.036919 0.004761 0.4
-0.037571 0.004761 0.4
-0.038223 0.004761 0.4
-0.038777 0.004749 0.399
-0.039428 0.004749 0.399
-0.039977 0.004737 0.398
-0.040626 0.004737 0.398
-0.041275 0.004737 0.398
-0.041818 0.004725 0.397
-0.042358 0.004714 0.396
-0.043003 0.004714 0.396
-0.043538 0.004702 0.395
-0.044182 0.004702 0.395
-0.044826 0.004702 0.395
-0.045355 0.00469 0.394
-0.045997 0.00469 0.394
-0.04652 0.004678 0.393
-0.047041 0.004666 0.392
-0.04768 0.004666 0.392
-0.048319 0.004666 0.392
-0.048833 0.004654 0.391
-0.04947 0.004654 0.391
-0.050107 0.004654 0.391
-0.050744 0.004654 0.391
-0.051381 0.004654 0.391
-0.051886 0.004642 0.39
-0.052521 0.004642 0.39
-0.053157 0.004642 0.39
-0.053792 0.004642 0.39
-0.054428 0.004642 0.39
-0.054922 0.00463 0.389
-0.055556 0.00463 0.389
-0.05619 0.00463 0.389
-0.056824 0.00463 0.389
-0.05731 0.004618 0.388
-0.057943 0.004618 0.388
-0.058575 0.004618 0.388
-0.059207 0.004618 0.388
-0.05984 0.004618 0.388
-0.060472 0.004618 0.388
-0.061104 0.004618 0.388
-0.061737 0.004618 0.388
-0.062369 0.004618 0.388
-0.063001 0.004618 0.388
-0.063634 0.004618 0.388
-0.0641 0.004606 0.387
-0.064731 0.004606 0.387
-0.065362 0.004606 0.387
-0.065993 0.004606 0.387
-0.066795 0.004618 0.388
-0.067428 0.004618 0.388
0.053439 0.00414 0.403
0.052782 0.00414 0.403
0.052125 0.00414 0.403
0.051469 0.00414 0.403
0.050812 0.00414 0.403
0.050155 0.00414 0.403
0.043357 0.004181 0.407
0.042693 0.004181 0.407
0.04203 0.004181 0.407
0.041468 0.004192 0.408
0.040804 0.004192 0.408
0.040335 0.004212 0.41
0.039667 0.004212 0.41
0.038999 0.004212 0.41
0.038331 0.004212 0.41
0.037663 0.004212 0.41
0.037085 0.004222 0.411
0.036503 0.004233 0.412
0.035832 0.004233 0.412
0.035246 0.004243 0.413
0.034657 0.004253 0.414
0.033982 0.004253 0.414
0.033307 0.004253 0.414
0.032632 0.004253 0.414
0.032035 0.004264 0.415
0.031434 0.004274 0.416
0.030756 0.004274 0.416
0.030151 0.004284 0.417
0.029471 0.004284 0.417
0.02886 0.004294 0.418
0.028247 0.004305 0.419
0.027564 0.004305 0.419
0.026945 0.004315 0.42
0.026323 0.004325 0.421
0.025637 0.004325 0.421
0.02501 0.004335 0.422
0.024322 0.004335 0.422
0.023635 0.004335 0.422
0.022947 0.004335 0.422
0.022259 0.004335 0.422
0.021571 0.004335 0.422
0.020884 0.004335 0.422
0.020244 0.004346 0.423
0.019555 0.004346 0.423
0.018865 0.004346 0.423
0.018176 0.004346 0.423
0.017486 0.004346 0.423
0.016797 0.004346 0.423
0.01607 0.004335 0.422
0.015382 0.004335 0.422
0.014694 0.004335 0.422
0.014006 0.004335 0.422
0.013287 0.004325 0.421
0.012571 0.004315 0.42
0.011887 0.004315 0.42
0.011149 0.004294 0.418
0.010417 0.004274 0.416
0.009739 0.004274 0.416
0.008996 0.004243 0.413
0.008283 0.004222 0.411
0.007576 0.004202 0.409
0.006909 0.004202 0.409
0.006212 0.004181 0.407
0.005522 0.004161 0.405
0.004862 0.004161 0.405
0.004171 0.00413 0.402
0.003507 0.00412 0.401
0.002853 0.00412 0.401
0.002194 0.004109 0.4
0.001542 0.004109 0.4
0.00089 0.004109 0.4
0.000238 0.004099 0.399
-0.000412 0.004099 0.399
-0.00106 0.004089 0.398
-0.001704 0.004079 0.397
-0.002351 0.004079 0.397
-0.002991 0.004068 0.396
-0.003636 0.004068 0.396
-0.004281 0.004068 0.396
-0.004914 0.004058 0.395
-0.005544 0.004048 0.394
-0.006186 0.004048 0.394
-0.006811 0.004038 0.393
-0.007451 0.004038 0.393
-0.008092 0.004038 0.393
-0.00871 0.004027 0.392
-0.009349 0.004027 0.392
-0.009988 0.004027 0.392
-0.010627 0.004027 0.392
-0.011265 0.004027 0.392
-0.011904 0.004027 0.392
-0.012543 0.004027 0.392
-0.013182 0.004027 0.392
-0.013821 0.004027 0.392
-0.01446 0.004027 0.392
-0.015099 0.004027 0.392
-0.015737 0.004027 0.392
-0.016418 0.004038 0.393
-0.017059 0.004038 0.393
-0.017699 0.004038 0.393
-0.018339 0.004038 0.393
-0.01898 0.004038 0.393
-0.01967 0.004048 0.394
-0.020364 0.004058 0.395
-0.021008 0.004058 0.395
-0.021651 0.004058 0.395
-0.022295 0.004058 0.395
-0.022997 0.004068 0.396
-0.023702 0.004079 0.397
-0.024349 0.004079 0.397
-0.024996 0.004079 0.397
-0.025708 0.004089 0.398
-0.026356 0.004089 0.398
-0.027005 0.004089 0.398
-0.027654 0.004089 0.398
-0.028373 0.004099 0.399
-0.029024 0.004099 0.399
-0.029674 0.004099 0.399
-0.0304 0.004109 0.4
-0.031052 0.004109 0.4
-0.031704 0.004109 0.4
-0.032356 0.004109 0.4
-0.033008 0.004109 0.4
-0.033659 0.004109 0.4
-0.034311 0.004109 0.4
-0.034963 0.004109 0.4
-0.035615 0.004109 0.4
-0.036267 0.004109 0.4
-0.036919 0.004109 0.4
-0.037571 0.004109 0.4
-0.038127 0.004099 0.399
-0.038777 0.004099 0.399
-0.039428 0.004099 0.399
-0.039977 0.004089 0.398
-0.040626 0.004089 0.398
-0.041275 0.004089 0.398
-0.041818 0.004079 0.397
-0.042358 0.004068 0.396
-0.043003 0.004068 0.396
-0.043538 0.004058 0.395
-0.044182 0.004058 0.395
-0.044826 0.004058 0.395
-0.045355 0.004048 0.394
-0.045997 0.004048 0.394
-0.04652 0.004038 0.393
-0.047041 0.004027 0.392
-0.04768 0.004027 0.392
-0.048319 0.004027 0.392
-0.048833 0.004017 0.391
-0.04947 0.004017 0.391
-0.050107 0.004017 0.391
-0.050744 0.004017 0.391
-0.051381 0.004017 0.391
-0.051886 0.004007 0.39
-0.052521 0.004007 0.39
-0.053157 0.004007 0.39
-0.053792 0.004007 0.39
-0.054428 0.004007 0.39
-0.054922 0.003996 0.389
-0.055556 0.003996 0.389
-0.05619 0.003996 0.389
-0.056824 0.003996 0.389
-0.05731 0.003986 0.388
-0.057943 0.003986 0.388
-0.058575 0.003986 0.388
-0.059207 0.003986 0.388
-0.05984 0.003986 0.388
-0.060472 0.003986 0.388
-0.061104 0.003986 0.388
-0.061737 0.003986 0.388
-0.062369 0.003986 0.388
-0.063001 0.003986 0.388
-0.063634 0.003986 0.388
-0.0641 0.003976 0.387
-0.064731 0.003976 0.387
-0.065362 0.003976 0.387
-0.066163 0.003986 0.388
-0.066795 0.003986 0.388
-0.067428 0.003986 0.388
0.053439 0.003484 0.403
0.052782 0.003484 0.403
0.052125 0.003484 0.403
0.051469 0.003484 0.403
0.050812 0.003484 0.403
0.050155 0.003484 0.403
0.049498 0.003484 0.403
0.048842 0.003484 0.403
0.048185 0.003484 0.403
0.047528 0.003484 0.403
0.046871 0.003484 0.403
0.046329 0.003492 0.404
0.045671 0.003492 0.404
0.045012 0.003492 0.404
0.044464 0.003501 0.405
0.043804 0.003501 0.405
0.043144 0.003501 0.405
0.042588 0.00351 0.406
0.041927 0.00351 0.406
0.041367 0.003518 0.407
0.040703 0.003518 0.407
0.040139 0.003527 0.408
0.03957 0.003536 0.409
0.038904 0.003536 0.409
0.038331 0.003544 0.41
0.037663 0.003544 0.41
0.036994 0.003544 0.41
0.036415 0.003553 0.411
0.035745 0.003553 0.411
0.035161 0.003561 0.412
0.034573 0.00357 0.413
0.0339 0.00357 0.413
0.033307 0.003579 0.414
0.032632 0.003579 0.414
0.032035 0.003587 0.415
0.031434 0.003596 0.416
0.030756 0.003596 0.416
0.030078 0.003596 0.416
0.029471 0.003605 0.417
0.02886 0.003613 0.418
0.028179 0.003613 0.418
0.027498 0.003613 0.418
0.026881 0.003622 0.419
0.026261 0.003631 0.42
0.025576 0.003631 0.42
0.024951 0.003639 0.421
0.024265 0.003639 0.421
0.023579 0.003639 0.421
0.022893 0.003639 0.421
0.022206 0.003639 0.421
0.02152 0.003639 0.421
0.020884 0.003648 0.422
0.020196 0.003648 0.422
0.019508 0.003648 0.422
0.018821 0.003648 0.422
0.018133 0.003648 0.422
0.017445 0.003648 0.422
0.016718 0.003639 0.421
0.015993 0.003631 0.42
0.015309 0.003631 0.42
0.01459 0.003622 0.419
0.013907 0.003622 0.419
0.013287 0.003639 0.421
0.012481 0.003605 0.417
0.011745 0.003587 0.415
0.011069 0.003587 0.415
0.010342 0.00357 0.413
0.009599 0.003544 0.41
0.008931 0.003544 0.41
0.008242 0.003536 0.409
0.007539 0.003518 0.407
0.006876 0.003518 0.407
0.006197 0.00351 0.406
0.005508 0.003492 0.404
0.00485 0.003492 0.404
0.004171 0.003475 0.402
0.003507 0.003466 0.401
0.002853 0.003466 0.401
0.0022 0.003466 0.401
0.001542 0.003458 0.4
0.00089 0.003458 0.4
0.000238 0.003449 0.399
-0.000412 0.003449 0.399
-0.00106 0.00344 0.398
-0.001704 0.003432 0.397
-0.002351 0.003432 0.397
-0.002991 0.003423 0.396
-0.003627 0.003415 0.395
-0.004271 0.003415 0.395
-0.004902 0.003406 0.394
-0.005544 0.003406 0.394
-0.006186 0.003406 0.394
-0.006811 0.003397 0.393
-0.007451 0.003397 0.393
-0.008092 0.003397 0.393
-0.00871 0.003389 0.392
-0.009349 0.003389 0.392
-0.009988 0.003389 0.392
-0.010627 0.003389 0.392
-0.011265 0.003389 0.392
-0.011904 0.003389 0.392
-0.012543 0.003389 0.392
-0.013182 0.003389 0.392
-0.013821 0.003389 0.392
-0.01446 0.003389 0.392
-0.015099 0.003389 0.392
-0.015737 0.003389 0.392
-0.016418 0.003397 0.393
-0.017059 0.003397 0.393
-0.017699 0.003397 0.393
-0.018339 0.003397 0.393
-0.01898 0.003397 0.393
-0.01967 0.003406 0.394
-0.020364 0.003415 0.395
-0.021008 0.003415 0.395
-0.021651 0.003415 0.395
-0.022295 0.003415 0.395
-0.022997 0.003423 0.396
-0.023702 0.003432 0.397
-0.024349 0.003432 0.397
-0.024996 0.003432 0.397
-0.025708 0.00344 0.398
-0.026356 0.00344 0.398
-0.027005 0.00344 0.398
-0.027654 0.00344 0.398
-0.028373 0.003449 0.399
-0.029024 0.003449 0.399
-0.029674 0.003449 0.399
-0.0304 0.003458 0.4
-0.031052 0.003458 0.4
-0.031704 0.003458 0.4
-0.032356 0.003458 0.4
-0.033008 0.003458 0.4
-0.033659 0.003458 0.4
-0.034311 0.003458 0.4
-0.034963 0.003458 0.4
-0.035615 0.003458 0.4
-0.036267 0.003458 0.4
-0.036919 0.003458 0.4
-0.037571 0.003458 0.4
-0.038127 0.003449 0.399
-0.038777 0.003449 0.399
-0.039428 0.003449 0.399
-0.039977 0.00344 0.398
-0.040626 0.00344 0.398
-0.041275 0.00344 0.398
-0.041818 0.003432 0.397
-0.042358 0.003423 0.396
-0.043003 0.003423 0.396
-0.043538 0.003415 0.395
-0.044182 0.003415 0.395
-0.044826 0.003415 0.395
-0.045355 0.003406 0.394
-0.045997 0.003406 0.394
-0.04652 0.003397 0.393
-0.047041 0.003389 0.392
-0.04768 0.003389 0.392
-0.048319 0.003389 0.392
-0.048833 0.00338 0.391
-0.04947 0.00338 0.391
-0.050107 0.00338 0.391
-0.050744 0.00338 0.391
-0.051381 0.00338 0.391
-0.051886 0.003371 0.39
-0.052521 0.003371 0.39
-0.053157 0.003371 0.39
-0.053792 0.003371 0.39
-0.054428 0.003371 0.39
-0.054922 0.003363 0.389
-0.055556 0.003363 0.389
-0.05619 0.003363 0.389
-0.056824 0.003363 0.389
-0.05731 0.003354 0.388
-0.057943 0.003354 0.388
-0.058575 0.003354 0.388
-0.059207 0.003354 0.388
-0.05984 0.003354 0.388
-0.060472 0.003354 0.388
-0.061104 0.003354 0.388
-0.061737 0.003354 0.388
-0.062369 0.003354 0.388
-0.063001 0.003354 0.388
-0.063634 0.003354 0.388
-0.0641 0.003345 0.387
-0.064731 0.003345 0.387
-0.065362 0.003345 0.387
-0.066163 0.003354 0.388
-0.066795 0.003354 0.388
-0.067428 0.003354 0.388
0.054096 0.002827 0.403
0.053439 0.002827 0.403
0.052782 0.002827 0.403
0.052125 0.002827 0.403
0.051469 0.002827 0.403
0.050812 0.002827 0.403
0.050155 0.002827 0.403
0.049498 0.002827 0.403
0.048842 0.002827 0.403
0.048185 0.002827 0.403
0.047528 0.002827 0.403
0.046871 0.002827 0.403
0.046214 0.002827 0.403
0.045671 0.002834 0.404
0.045012 0.002834 0.404
0.044354 0.002834 0.404
0.043695 0.002834 0.404
0.043144 0.002841 0.405
0.042588 0.002848 0.406
0.041927 0.002848 0.406
0.041367 0.002855 0.407
0.040703 0.002855 0.407
0.040139 0.002862 0.408
0.039474 0.002862 0.408
0.038809 0.002862 0.408
0.038237 0.002869 0.409
0.037663 0.002876 0.41
0.036994 0.002876 0.41
0.036415 0.002883 0.411
0.035745 0.002883 0.411
0.035161 0.00289 0.412
0.034573 0.002897 0.413
0.0339 0.002897 0.413
0.033307 0.002904 0.414
0.032632 0.002904 0.414
0.031958 0.002904 0.414
0.031434 0.002918 0.416
0.030756 0.002918 0.416
0.030078 0.002918 0.416
0.029542 0.002932 0.418
0.02886 0.002932 0.418
0.028179 0.002932 0.418
0.027498 0.002932 0.418
0.026881 0.002939 0.419
0.026261 0.002946 0.42
0.025576 0.002946 0.42
0.024951 0.002953 0.421
0.024265 0.002953 0.421
0.023579 0.002953 0.421
0.022893 0.002953 0.421
0.022206 0.002953 0.421
0.02152 0.002953 0.421
0.020884 0.00296 0.422
0.020196 0.00296 0.422
0.019508 0.00296 0.422
0.018821 0.00296 0.422
0.018133 0.00296 0.422
0.017445 0.00296 0.422
0.016718 0.002953 0.421
0.015993 0.002946 0.42
0.015309 0.002946 0.42
0.01459 0.002939 0.419
0.013907 0.002939 0.419
0.012481 0.002925 0.417
0.011745 0.002911 0.415
0.011069 0.002911 0.415
0.010342 0.002897 0.413
0.009599 0.002876 0.41
0.008931 0.002876 0.41
0.008242 0.002869 0.409
0.007539 0.002855 0.407
0.006876 0.002855 0.407
0.006197 0.002848 0.406
0.005508 0.002834 0.404
0.00485 0.002834 0.404
0.004171 0.00282 0.402
0.003507 0.002813 0.401
0.002853 0.002813 0.401
0.0022 0.002813 0.401
0.001542 0.002806 0.4
0.00089 0.002806 0.4
0.000238 0.002799 0.399
-0.000412 0.002799 0.399
-0.00106 0.002792 0.398
-0.001704 0.002785 0.397
-0.002351 0.002785 0.397
-0.002991 0.002778 0.396
-0.003627 0.002771 0.395
-0.004271 0.002771 0.395
-0.004902 0.002764 0.394
-0.005544 0.002764 0.394
-0.006186 0.002764 0.394
-0.006811 0.002757 0.393
-0.007451 0.002757 0.393
-0.008092 0.002757 0.393
-0.00871 0.00275 0.392
-0.009349 0.00275 0.392
-0.009988 0.00275 0.392
-0.010627 0.00275 0.392
-0.011265 0.00275 0.392
-0.011904 0.00275 0.392
-0.012543 0.00275 0.392
-0.013182 0.00275 0.392
-0.013821 0.00275 0.392
-0.01446 0.00275 0.392
-0.015099 0.00275 0.392
-0.015737 0.00275 0.392
-0.016376 0.00275 0.392
-0.017015 0.00275 0.392
-0.017699 0.002757 0.393
-0.018339 0.002757 0.393
-0.01898 0.002757 0.393
-0.01962 0.002757 0.393
-0.020312 0.002764 0.394
-0.020955 0.002764 0.394
-0.021597 0.002764 0.394
-0.022239 0.002764 0.394
-0.022939 0.002771 0.395
-0.023642 0.002778 0.396
-0.024288 0.002778 0.396
-0.024933 0.002778 0.396
-0.025643 0.002785 0.397
-0.02629 0.002785 0.397
-0.026937 0.002785 0.397
-0.027584 0.002785 0.397
-0.028302 0.002792 0.398
-0.028951 0.002792 0.398
-0.029599 0.002792 0.398
-0.030248 0.002792 0.398
-0.030974 0.002799 0.399
-0.031625 0.002799 0.399
-0.032275 0.002799 0.399
-0.032925 0.002799 0.399
-0.033575 0.002799 0.399
-0.034226 0.002799 0.399
-0.034876 0.002799 0.399
-0.035526 0.002799 0.399
-0.036176 0.002799 0.399
-0.036827 0.002799 0.399
-0.037477 0.002799 0.399
-0.038127 0.002799 0.399
-0.038777 0.002799 0.399
-0.039428 0.002799 0.399
-0.039977 0.002792 0.398
-0.040626 0.002792 0.398
-0.041275 0.002792 0.398
-0.041818 0.002785 0.397
-0.042358 0.002778 0.396
-0.043003 0.002778 0.396
-0.043538 0.002771 0.395
-0.044182 0.002771 0.395
-0.044826 0.002771 0.395
-0.045355 0.002764 0.394
-0.045997 0.002764 0.394
-0.04652 0.002757 0.393
-0.047161 0.002757 0.393
-0.047801 0.002757 0.393
-0.048319 0.00275 0.392
-0.048957 0.00275 0.392
-0.049596 0.00275 0.392
-0.050107 0.002743 0.391
-0.050744 0.002743 0.391
-0.051381 0.002743 0.391
-0.051886 0.002736 0.39
-0.052521 0.002736 0.39
-0.053157 0.002736 0.39
-0.053792 0.002736 0.39
-0.054288 0.002729 0.389
-0.054922 0.002729 0.389
-0.055556 0.002729 0.389
-0.05619 0.002729 0.389
-0.056824 0.002729 0.389
-0.05731 0.002722 0.388
-0.057943 0.002722 0.388
-0.058575 0.002722 0.388
-0.059207 0.002722 0.388
-0.05984 0.002722 0.388
-0.060472 0.002722 0.388
-0.061104 0.002722 0.388
-0.061737 0.002722 0.388
-0.062369 0.002722 0.388
-0.063001 0.002722 0.388
-0.063634 0.002722 0.388
-0.064266 0.002722 0.388
-0.064898 0.002722 0.388
-0.065531 0.002722 0.388
-0.066163 0.002722 0.388
0.054096 0.00217 0.403
0.053439 0.00217 0.403
0.052782 0.00217 0.403
0.052125 0.00217 0.403
0.051469 0.00217 0.403
0.050812 0.00217 0.403
0.050155 0.00217 0.403
0.049498 0.00217 0.403
0.048842 0.00217 0.403
0.048185 0.00217 0.403
0.047528 0.00217 0.403
0.046871 0.00217 0.403
0.046214 0.00217 0.403
0.045671 0.002176 0.404
0.045012 0.002176 0.404
0.044354 0.002176 0.404
0.043695 0.002176 0.404
0.043144 0.002181 0.405
0.042588 0.002187 0.406
0.041927 0.002187 0.406
0.041367 0.002192 0.407
0.040703 0.002192 0.407
0.040139 0.002197 0.408
0.039474 0.002197 0.408
0.038809 0.002197 0.408
0.038237 0.002203 0.409
0.037663 0.002208 0.41
0.036994 0.002208 0.41
0.036415 0.002214 0.411
0.035745 0.002214 0.411
0.035161 0.002219 0.412
0.034573 0.002224 0.413
0.0339 0.002224 0.413
0.033307 0.00223 0.414
0.032632 0.00223 0.414
0.031958 0.00223 0.414
0.031434 0.00224 0.416
0.030756 0.00224 0.416
0.030078 0.00224 0.416
0.029542 0.002251 0.418
