ply
format ascii 1.0
comment Created by Open3D
element vertex 1973
property double x
property double y
property double z
end_header
0.012601 0.038622 0.421
0.011915 0.038622 0.421
0.011202 0.038531 0.42
0.010518 0.038531 0.42
0.009833 0.038531 0.42
0.009149 0.038531 0.42
0.008464 0.038531 0.42
0.00778 0.038531 0.42
0.007095 0.038531 0.42
0.006411 0.038531 0.42
0.005726 0.038531 0.42
0.005042 0.038531 0.42
0.004357 0.038531 0.42
0.003673 0.038531 0.42
0.002995 0.038622 0.421
0.002309 0.038622 0.421
0.001623 0.038622 0.421
0.000937 0.038622 0.421
0.000251 0.038622 0.421
-0.000436 0.038714 0.422
-0.001124 0.038714 0.422
-0.001812 0.038714 0.422
-0.002499 0.038714 0.422
-0.003187 0.038714 0.422
-0.003884 0.038806 0.423
-0.004573 0.038806 0.423
-0.005263 0.038806 0.423
-0.005966 0.038897 0.424
-0.006657 0.038897 0.424
-0.007348 0.038897 0.424
-0.008039 0.038897 0.424
-0.00873 0.038897 0.424
-0.009421 0.038897 0.424
-0.010112 0.038897 0.424
-0.010803 0.038897 0.424
-0.011494 0.038897 0.424
-0.012185 0.038897 0.424
-0.012876 0.038897 0.424
-0.013567 0.038897 0.424
-0.014258 0.038897 0.424
-0.014949 0.038897 0.424
-0.01564 0.038897 0.424
-0.016331 0.038897 0.424
-0.017062 0.038989 0.425
-0.017755 0.038989 0.425
0.015345 0.037936 0.421
0.014659 0.037936 0.421
0.013973 0.037936 0.421
0.013287 0.037936 0.421
0.012601 0.037936 0.421
0.011915 0.037936 0.421
0.011202 0.037846 0.42
0.010518 0.037846 0.42
0.009833 0.037846 0.42
0.009149 0.037846 0.42
0.008464 0.037846 0.42
0.00778 0.037846 0.42
0.007095 0.037846 0.42
0.006411 0.037846 0.42
0.005726 0.037846 0.42
0.005042 0.037846 0.42
0.004357 0.037846 0.42
0.003673 0.037846 0.42
0.002995 0.037936 0.421
0.002309 0.037936 0.421
0.001623 0.037936 0.421
0.000937 0.037936 0.421
0.000251 0.037936 0.421
-0.000436 0.038026 0.422
-0.001124 0.038026 0.422
-0.001812 0.038026 0.422
-0.002499 0.038026 0.422
-0.003187 0.038026 0.422
-0.003884 0.038117 0.423
-0.004573 0.038117 0.423
-0.005263 0.038117 0.423
-0.005966 0.038207 0.424
-0.006657 0.038207 0.424
-0.007348 0.038207 0.424
-0.008039 0.038207 0.424
-0.00873 0.038207 0.424
-0.009421 0.038207 0.424
-0.010112 0.038207 0.424
-0.010803 0.038207 0.424
-0.011494 0.038207 0.424
-0.012185 0.038207 0.424
-0.012876 0.038207 0.424
-0.013567 0.038207 0.424
-0.014258 0.038207 0.424
-0.014949 0.038207 0.424
-0.01564 0.038207 0.424
-0.016331 0.038207 0.424
-0.017022 0.038207 0.424
-0.017713 0.038207 0.424
-0.018404 0.038207 0.424
-0.019095 0.038207 0.424
-0.019786 0.038207 0.424
-0.020525 0.038297 0.425
-0.021218 0.038297 0.425
-0.021911 0.038297 0.425
-0.022603 0.038297 0.425
-0.023296 0.038297 0.425
-0.023989 0.038297 0.425
0.015345 0.03725 0.421
0.014659 0.03725 0.421
0.013973 0.03725 0.421
0.013287 0.03725 0.421
0.012601 0.03725 0.421
0.011915 0.03725 0.421
0.011202 0.037162 0.42
0.010518 0.037162 0.42
0.009833 0.037162 0.42
0.009149 0.037162 0.42
0.008464 0.037162 0.42
0.00778 0.037162 0.42
0.007095 0.037162 0.42
0.006411 0.037162 0.42
0.005726 0.037162 0.42
0.005042 0.037162 0.42
0.004357 0.037162 0.42
0.003673 0.037162 0.42
0.002995 0.03725 0.421
0.002309 0.03725 0.421
0.001623 0.03725 0.421
0.000937 0.03725 0.421
0.000251 0.03725 0.421
-0.000436 0.037339 0.422
-0.001124 0.037339 0.422
-0.001812 0.037339 0.422
-0.002499 0.037339 0.422
-0.003187 0.037339 0.422
-0.003884 0.037427 0.423
-0.004573 0.037427 0.423
-0.005263 0.037427 0.423
-0.005966 0.037516 0.424
-0.006657 0.037516 0.424
-0.007348 0.037516 0.424
-0.008039 0.037516 0.424
-0.00873 0.037516 0.424
-0.009421 0.037516 0.424
-0.010112 0.037516 0.424
-0.010803 0.037516 0.424
-0.011494 0.037516 0.424
-0.012185 0.037516 0.424
-0.012876 0.037516 0.424
-0.013567 0.037516 0.424
-0.014258 0.037516 0.424
-0.014949 0.037516 0.424
-0.01564 0.037516 0.424
-0.016331 0.037516 0.424
-0.017022 0.037516 0.424
-0.017713 0.037516 0.424
-0.018404 0.037516 0.424
-0.019095 0.037516 0.424
-0.019786 0.037516 0.424
-0.020525 0.037604 0.425
-0.021218 0.037604 0.425
-0.021911 0.037604 0.425
-0.022603 0.037604 0.425
-0.023296 0.037604 0.425
-0.023989 0.037604 0.425
0.015345 0.036564 0.421
0.014659 0.036564 0.421
0.013973 0.036564 0.421
0.013287 0.036564 0.421
0.012601 0.036564 0.421
0.011915 0.036564 0.421
0.011229 0.036564 0.421
0.010543 0.036564 0.421
0.009833 0.036478 0.42
0.009149 0.036478 0.42
0.008464 0.036478 0.42
0.00778 0.036478 0.42
0.007095 0.036478 0.42
0.006411 0.036478 0.42
0.005726 0.036478 0.42
0.005042 0.036478 0.42
0.004357 0.036478 0.42
0.003673 0.036478 0.42
0.002995 0.036564 0.421
0.002309 0.036564 0.421
0.001623 0.036564 0.421
0.000937 0.036564 0.421
0.000251 0.036564 0.421
-0.000436 0.036651 0.422
-0.001124 0.036651 0.422
-0.001812 0.036651 0.422
-0.002499 0.036651 0.422
-0.003187 0.036651 0.422
-0.003884 0.036738 0.423
-0.004573 0.036738 0.423
-0.005263 0.036738 0.423
-0.005966 0.036825 0.424
-0.006657 0.036825 0.424
-0.007348 0.036825 0.424
-0.008039 0.036825 0.424
-0.00873 0.036825 0.424
-0.009421 0.036825 0.424
-0.010112 0.036825 0.424
-0.010803 0.036825 0.424
-0.011494 0.036825 0.424
-0.012185 0.036825 0.424
-0.012876 0.036825 0.424
-0.013567 0.036825 0.424
-0.014258 0.036825 0.424
-0.014949 0.036825 0.424
-0.01564 0.036825 0.424
-0.016331 0.036825 0.424
-0.017022 0.036825 0.424
-0.017713 0.036825 0.424
-0.018404 0.036825 0.424
-0.019095 0.036825 0.424
-0.019786 0.036825 0.424
-0.020477 0.036825 0.424
-0.021168 0.036825 0.424
-0.021859 0.036825 0.424
-0.02255 0.036825 0.424
-0.023241 0.036825 0.424
-0.023932 0.036825 0.424
-0.024623 0.036825 0.424
-0.025314 0.036825 0.424
-0.026005 0.036825 0.424
-0.026696 0.036825 0.424
-0.027387 0.036825 0.424
-0.028078 0.036825 0.424
-0.028769 0.036825 0.424
-0.02946 0.036825 0.424
0.015345 0.035879 0.421
0.014659 0.035879 0.421
0.013973 0.035879 0.421
0.013287 0.035879 0.421
0.012601 0.035879 0.421
0.011915 0.035879 0.421
0.011229 0.035879 0.421
0.010543 0.035879 0.421
0.009833 0.035793 0.42
0.009149 0.035793 0.42
0.008464 0.035793 0.42
0.00778 0.035793 0.42
0.007095 0.035793 0.42
0.006411 0.035793 0.42
0.005726 0.035793 0.42
0.005042 0.035793 0.42
0.004357 0.035793 0.42
0.003673 0.035793 0.42
0.002995 0.035879 0.421
0.002309 0.035879 0.421
0.001623 0.035879 0.421
0.000937 0.035879 0.421
0.000251 0.035879 0.421
-0.000435 0.035879 0.421
-0.001121 0.035879 0.421
-0.001812 0.035964 0.422
-0.002499 0.035964 0.422
-0.003187 0.035964 0.422
-0.003884 0.036049 0.423
-0.004573 0.036049 0.423
-0.005263 0.036049 0.423
-0.005966 0.036134 0.424
-0.006657 0.036134 0.424
-0.007348 0.036134 0.424
-0.008039 0.036134 0.424
-0.00873 0.036134 0.424
-0.009421 0.036134 0.424
-0.010112 0.036134 0.424
-0.010803 0.036134 0.424
-0.011494 0.036134 0.424
-0.012185 0.036134 0.424
-0.012846 0.036049 0.423
-0.013535 0.036049 0.423
-0.014224 0.036049 0.423
-0.014914 0.036049 0.423
-0.01564 0.036134 0.424
-0.016331 0.036134 0.424
-0.017022 0.036134 0.424
-0.017713 0.036134 0.424
-0.018404 0.036134 0.424
-0.019095 0.036134 0.424
-0.019786 0.036134 0.424
-0.020477 0.036134 0.424
-0.021168 0.036134 0.424
-0.021859 0.036134 0.424
-0.02255 0.036134 0.424
-0.023241 0.036134 0.424
-0.023932 0.036134 0.424
-0.024623 0.036134 0.424
-0.025314 0.036134 0.424
-0.026005 0.036134 0.424
-0.026696 0.036134 0.424
-0.027387 0.036134 0.424
-0.028078 0.036134 0.424
-0.028769 0.036134 0.424
-0.02946 0.036134 0.424
-0.030151 0.036134 0.424
-0.030842 0.036134 0.424
-0.031533 0.036134 0.424
0.015345 0.035193 0.421
0.014659 0.035193 0.421
0.013973 0.035193 0.421
0.013287 0.035193 0.421
0.012601 0.035193 0.421
0.011915 0.035193 0.421
0.011229 0.035193 0.421
0.010543 0.035193 0.421
0.009857 0.035193 0.421
0.009149 0.035109 0.42
0.008464 0.035109 0.42
0.00778 0.035109 0.42
0.007095 0.035109 0.42
0.006411 0.035109 0.42
0.005726 0.035109 0.42
0.005042 0.035109 0.42
0.004357 0.035109 0.42
0.003682 0.035193 0.421
0.002995 0.035193 0.421
0.002309 0.035193 0.421
0.001623 0.035193 0.421
0.000937 0.035193 0.421
0.000251 0.035193 0.421
-0.000435 0.035193 0.421
-0.001121 0.035193 0.421
-0.001812 0.035276 0.422
-0.003195 0.03536 0.423
-0.003884 0.03536 0.423
-0.004573 0.03536 0.423
-0.005275 0.035443 0.424
-0.005966 0.035443 0.424
-0.006657 0.035443 0.424
-0.007348 0.035443 0.424
-0.008039 0.035443 0.424
-0.00873 0.035443 0.424
-0.009421 0.035443 0.424
-0.010112 0.035443 0.424
-0.010803 0.035443 0.424
-0.011494 0.035443 0.424
-0.012185 0.035443 0.424
-0.012846 0.03536 0.423
-0.013535 0.03536 0.423
-0.014224 0.03536 0.423
-0.014914 0.03536 0.423
-0.01564 0.035443 0.424
-0.016331 0.035443 0.424
-0.017022 0.035443 0.424
-0.017713 0.035443 0.424
-0.018404 0.035443 0.424
-0.019095 0.035443 0.424
-0.019786 0.035443 0.424
-0.020477 0.035443 0.424
-0.021168 0.035443 0.424
-0.021859 0.035443 0.424
-0.02255 0.035443 0.424
-0.023241 0.035443 0.424
-0.023932 0.035443 0.424
-0.024623 0.035443 0.424
-0.025314 0.035443 0.424
-0.026005 0.035443 0.424
-0.026696 0.035443 0.424
-0.027387 0.035443 0.424
-0.028078 0.035443 0.424
-0.028769 0.035443 0.424
-0.02946 0.035443 0.424
-0.030151 0.035443 0.424
-0.030842 0.035443 0.424
-0.031533 0.035443 0.424
0.014659 0.034507 0.421
0.013973 0.034507 0.421
0.013287 0.034507 0.421
0.012601 0.034507 0.421
0.011915 0.034507 0.421
0.011229 0.034507 0.421
0.010543 0.034507 0.421
0.009857 0.034507 0.421
0.009149 0.034425 0.42
0.008464 0.034425 0.42
0.00778 0.034425 0.42
0.007095 0.034425 0.42
0.006411 0.034425 0.42
0.005726 0.034425 0.42
0.005042 0.034425 0.42
0.004357 0.034425 0.42
0.003682 0.034507 0.421
0.002995 0.034507 0.421
0.002309 0.034507 0.421
0.001623 0.034507 0.421
0.000937 0.034507 0.421
0.000251 0.034507 0.421
-0.000436 0.034589 0.422
-0.001124 0.034589 0.422
-0.00873 0.034753 0.424
-0.009421 0.034753 0.424
-0.010112 0.034753 0.424
-0.010803 0.034753 0.424
-0.011494 0.034753 0.424
-0.012185 0.034753 0.424
-0.012846 0.034671 0.423
-0.013535 0.034671 0.423
-0.014224 0.034671 0.423
-0.014914 0.034671 0.423
-0.015603 0.034671 0.423
-0.016293 0.034671 0.423
-0.017022 0.034753 0.424
-0.017713 0.034753 0.424
-0.018404 0.034753 0.424
-0.019095 0.034753 0.424
-0.019786 0.034753 0.424
-0.020477 0.034753 0.424
-0.021168 0.034753 0.424
-0.021808 0.034671 0.423
-0.022497 0.034671 0.423
-0.023186 0.034671 0.423
-0.023876 0.034671 0.423
-0.024623 0.034753 0.424
-0.025314 0.034753 0.424
-0.025944 0.034671 0.423
-0.026633 0.034671 0.423
-0.027322 0.034671 0.423
-0.028012 0.034671 0.423
-0.028701 0.034671 0.423
-0.029391 0.034671 0.423
-0.03008 0.034671 0.423
-0.030769 0.034671 0.423
-0.031533 0.034753 0.424
-0.032224 0.034753 0.424
-0.032915 0.034753 0.424
-0.033606 0.034753 0.424
-0.034297 0.034753 0.424
-0.034988 0.034753 0.424
0.014659 0.033821 0.421
0.013973 0.033821 0.421
0.013287 0.033821 0.421
0.012601 0.033821 0.421
0.011915 0.033821 0.421
0.011229 0.033821 0.421
0.010543 0.033821 0.421
0.009857 0.033821 0.421
0.009149 0.03374 0.42
0.008464 0.03374 0.42
0.00778 0.03374 0.42
0.007095 0.03374 0.42
0.006411 0.03374 0.42
0.005726 0.03374 0.42
0.005042 0.03374 0.42
0.004357 0.03374 0.42
0.003673 0.03374 0.42
0.002995 0.033821 0.421
0.002309 0.033821 0.421
0.001623 0.033821 0.421
0.000937 0.033821 0.421
0.000251 0.033821 0.421
-0.000436 0.033901 0.422
-0.001124 0.033901 0.422
-0.00873 0.034062 0.424
-0.009421 0.034062 0.424
-0.010112 0.034062 0.424
-0.010803 0.034062 0.424
-0.011494 0.034062 0.424
-0.012156 0.033981 0.423
-0.012846 0.033981 0.423
-0.013535 0.033981 0.423
-0.014224 0.033981 0.423
-0.014914 0.033981 0.423
-0.015603 0.033981 0.423
-0.016293 0.033981 0.423
-0.016982 0.033981 0.423
-0.017671 0.033981 0.423
-0.018361 0.033981 0.423
-0.01905 0.033981 0.423
-0.019739 0.033981 0.423
-0.020429 0.033981 0.423
-0.021118 0.033981 0.423
-0.021808 0.033981 0.423
-0.022497 0.033981 0.423
-0.023186 0.033981 0.423
-0.023876 0.033981 0.423
-0.024565 0.033981 0.423
-0.025254 0.033981 0.423
-0.025944 0.033981 0.423
-0.026633 0.033981 0.423
-0.027322 0.033981 0.423
-0.027946 0.033901 0.422
-0.028633 0.033901 0.422
-0.029321 0.033901 0.422
-0.03008 0.033981 0.423
-0.030769 0.033981 0.423
-0.031459 0.033981 0.423
-0.032148 0.033981 0.423
-0.032837 0.033981 0.423
-0.033527 0.033981 0.423
-0.034216 0.033981 0.423
-0.034906 0.033981 0.423
0.013287 0.033135 0.421
0.012601 0.033135 0.421
0.011915 0.033135 0.421
0.011229 0.033135 0.421
0.009857 0.033135 0.421
0.009149 0.033056 0.42
0.008464 0.033056 0.42
0.00778 0.033056 0.42
0.007095 0.033056 0.42
0.006411 0.033056 0.42
0.005726 0.033056 0.42
0.005042 0.033056 0.42
0.004357 0.033056 0.42
0.003148 0.028334 0.36
0.002561 0.028334 0.36
0.001975 0.028334 0.36
0.001388 0.028334 0.36
-0.009421 0.033371 0.424
-0.010112 0.033371 0.424
-0.010803 0.033371 0.424
-0.011494 0.033371 0.424
-0.012156 0.033292 0.423
-0.012846 0.033292 0.423
-0.013535 0.033292 0.423
-0.014224 0.033292 0.423
-0.014914 0.033292 0.423
-0.015603 0.033292 0.423
-0.016293 0.033292 0.423
-0.016982 0.033292 0.423
-0.017671 0.033292 0.423
-0.018361 0.033292 0.423
-0.01905 0.033292 0.423
-0.019739 0.033292 0.423
-0.020429 0.033292 0.423
-0.021118 0.033292 0.423
-0.021808 0.033292 0.423
-0.022497 0.033292 0.423
-0.023186 0.033292 0.423
-0.023876 0.033292 0.423
-0.024565 0.033292 0.423
-0.025254 0.033292 0.423
-0.025944 0.033292 0.423
-0.026633 0.033292 0.423
-0.027322 0.033292 0.423
-0.027946 0.033213 0.422
-0.028633 0.033213 0.422
-0.029321 0.033213 0.422
-0.03008 0.033292 0.423
-0.030769 0.033292 0.423
-0.031459 0.033292 0.423
-0.032148 0.033292 0.423
-0.032837 0.033292 0.423
-0.033527 0.033292 0.423
-0.034216 0.033292 0.423
-0.034906 0.033292 0.423
-0.035595 0.033292 0.423
-0.036284 0.033292 0.423
-0.036974 0.033292 0.423
0.007095 0.032372 0.42
0.006411 0.032372 0.42
0.005726 0.032372 0.42
0.005042 0.032372 0.42
0.004357 0.032372 0.42
0.003148 0.027747 0.36
0.002561 0.027747 0.36
0.001975 0.027747 0.36
0.001388 0.027747 0.36
-0.009421 0.03268 0.424
-0.010112 0.03268 0.424
-0.010778 0.032603 0.423
-0.011467 0.032603 0.423
-0.012156 0.032603 0.423
-0.012846 0.032603 0.423
-0.013535 0.032603 0.423
-0.014191 0.032526 0.422
-0.014879 0.032526 0.422
-0.015566 0.032526 0.422
-0.016254 0.032526 0.422
-0.016942 0.032526 0.422
-0.01763 0.032526 0.422
-0.018317 0.032526 0.422
-0.019005 0.032526 0.422
-0.019693 0.032526 0.422
-0.020381 0.032526 0.422
-0.021068 0.032526 0.422
-0.021756 0.032526 0.422
-0.022444 0.032526 0.422
-0.023131 0.032526 0.422
-0.023819 0.032526 0.422
-0.024507 0.032526 0.422
-0.025195 0.032526 0.422
-0.025882 0.032526 0.422
-0.02657 0.032526 0.422
-0.027258 0.032526 0.422
-0.027946 0.032526 0.422
-0.028633 0.032526 0.422
-0.029321 0.032526 0.422
-0.030009 0.032526 0.422
-0.030697 0.032526 0.422
-0.031384 0.032526 0.422
-0.032072 0.032526 0.422
-0.03276 0.032526 0.422
-0.033448 0.032526 0.422
-0.034216 0.032603 0.423
-0.034906 0.032603 0.423
-0.035595 0.032603 0.423
-0.036284 0.032603 0.423
-0.036974 0.032603 0.423
0.010745 0.027085 0.359
0.01016 0.027085 0.359
0.009575 0.027085 0.359
0.00899 0.027085 0.359
0.008405 0.027085 0.359
0.00782 0.027085 0.359
0.007255 0.027161 0.36
0.006668 0.027161 0.36
0.006082 0.027161 0.36
0.005495 0.027161 0.36
0.004908 0.027161 0.36
0.004322 0.027161 0.36
0.003735 0.027161 0.36
0.003148 0.027161 0.36
0.002561 0.027161 0.36
0.001975 0.027161 0.36
0.001388 0.027161 0.36
0.000801 0.027161 0.36
0.000215 0.027161 0.36
-0.000372 0.027161 0.36
-0.010778 0.031914 0.423
-0.011467 0.031914 0.423
-0.012128 0.031838 0.422
-0.012815 0.031838 0.422
-0.013503 0.031838 0.422
-0.014191 0.031838 0.422
-0.014879 0.031838 0.422
-0.015566 0.031838 0.422
-0.016254 0.031838 0.422
-0.016902 0.031763 0.421
-0.017588 0.031763 0.421
-0.018274 0.031763 0.421
-0.01896 0.031763 0.421
-0.019646 0.031763 0.421
-0.020332 0.031763 0.421
-0.021018 0.031763 0.421
-0.021704 0.031763 0.421
-0.022391 0.031763 0.421
-0.023077 0.031763 0.421
-0.023763 0.031763 0.421
-0.024449 0.031763 0.421
-0.025195 0.031838 0.422
-0.025882 0.031838 0.422
-0.02657 0.031838 0.422
-0.027258 0.031838 0.422
-0.027946 0.031838 0.422
-0.028633 0.031838 0.422
-0.029321 0.031838 0.422
-0.030009 0.031838 0.422
-0.030697 0.031838 0.422
-0.031384 0.031838 0.422
-0.032072 0.031838 0.422
-0.03276 0.031838 0.422
-0.033448 0.031838 0.422
-0.034216 0.031914 0.423
-0.034906 0.031914 0.423
-0.035595 0.031914 0.423
-0.036284 0.031914 0.423
-0.036974 0.031914 0.423
0.011362 0.026574 0.36
0.010745 0.0265 0.359
0.01016 0.0265 0.359
0.009575 0.0265 0.359
0.00899 0.0265 0.359
0.008405 0.0265 0.359
0.00782 0.0265 0.359
0.007255 0.026574 0.36
0.006668 0.026574 0.36
0.006082 0.026574 0.36
0.005495 0.026574 0.36
0.004908 0.026574 0.36
0.004322 0.026574 0.36
0.003735 0.026574 0.36
0.003148 0.026574 0.36
0.002561 0.026574 0.36
0.001975 0.026574 0.36
0.001388 0.026574 0.36
0.000801 0.026574 0.36
0.000215 0.026574 0.36
-0.000372 0.026574 0.36
-0.012128 0.031151 0.422
-0.012815 0.031151 0.422
-0.013503 0.031151 0.422
-0.014191 0.031151 0.422
-0.014879 0.031151 0.422
-0.015566 0.031151 0.422
-0.016254 0.031151 0.422
-0.016902 0.031077 0.421
-0.017588 0.031077 0.421
-0.018274 0.031077 0.421
-0.01896 0.031077 0.421
-0.019646 0.031077 0.421
-0.020332 0.031077 0.421
-0.021018 0.031077 0.421
-0.021704 0.031077 0.421
-0.022391 0.031077 0.421
-0.023077 0.031077 0.421
-0.023763 0.031077 0.421
-0.024449 0.031077 0.421
-0.025135 0.031077 0.421
-0.025821 0.031077 0.421
-0.026507 0.031077 0.421
-0.027193 0.031077 0.421
-0.027879 0.031077 0.421
-0.028566 0.031077 0.421
-0.029252 0.031077 0.421
-0.029938 0.031077 0.421
-0.030697 0.031151 0.422
-0.031384 0.031151 0.422
-0.032072 0.031151 0.422
-0.03276 0.031151 0.422
-0.033448 0.031151 0.422
-0.034135 0.031151 0.422
-0.034823 0.031151 0.422
-0.035595 0.031225 0.423
-0.036284 0.031225 0.423
-0.036974 0.031225 0.423
0.011362 0.025988 0.36
0.010775 0.025988 0.36
0.010188 0.025988 0.36
0.009602 0.025988 0.36
0.00899 0.025915 0.359
0.008405 0.025915 0.359
0.00782 0.025915 0.359
0.007255 0.025988 0.36
0.006668 0.025988 0.36
0.006082 0.025988 0.36
0.005495 0.025988 0.36
0.004908 0.025988 0.36
0.004322 0.025988 0.36
0.003735 0.025988 0.36
0.003148 0.025988 0.36
0.002561 0.025988 0.36
0.001975 0.025988 0.36
0.001388 0.025988 0.36
0.000801 0.025988 0.36
0.000215 0.025988 0.36
-0.000371 0.025915 0.359
-0.000956 0.025915 0.359
-0.001541 0.025915 0.359
-0.002126 0.025915 0.359
-0.002711 0.025915 0.359
-0.003296 0.025915 0.359
-0.012128 0.030463 0.422
-0.012815 0.030463 0.422
-0.013503 0.030463 0.422
-0.014191 0.030463 0.422
-0.014879 0.030463 0.422
-0.015566 0.030463 0.422
-0.016254 0.030463 0.422
-0.016862 0.030319 0.42
-0.017546 0.030319 0.42
-0.01823 0.030319 0.42
-0.018915 0.030319 0.42
-0.019599 0.030319 0.42
-0.020284 0.030319 0.42
-0.020968 0.030319 0.42
-0.021653 0.030319 0.42
-0.022337 0.030319 0.42
-0.023022 0.030319 0.42
-0.023706 0.030319 0.42
-0.024391 0.030319 0.42
-0.025075 0.030319 0.42
-0.02576 0.030319 0.42
-0.026444 0.030319 0.42
-0.027129 0.030319 0.42
-0.027813 0.030319 0.42
-0.028498 0.030319 0.42
-0.029182 0.030319 0.42
-0.029867 0.030319 0.42
-0.030624 0.030391 0.421
-0.03131 0.030391 0.421
-0.031996 0.030391 0.421
-0.032682 0.030391 0.421
-0.033448 0.030463 0.422
-0.034135 0.030463 0.422
-0.034823 0.030463 0.422
-0.035511 0.030463 0.422
-0.036284 0.030535 0.423
-0.036974 0.030535 0.423
0.012605 0.025542 0.362
0.012015 0.025542 0.362
0.011362 0.025401 0.36
0.010775 0.025401 0.36
0.010188 0.025401 0.36
0.009602 0.025401 0.36
0.009015 0.025401 0.36
0.008428 0.025401 0.36
0.007842 0.025401 0.36
0.007255 0.025401 0.36
0.006668 0.025401 0.36
0.006082 0.025401 0.36
0.005495 0.025401 0.36
0.004908 0.025401 0.36
0.004322 0.025401 0.36
0.003735 0.025401 0.36
0.003148 0.025401 0.36
0.002561 0.025401 0.36
0.001975 0.025401 0.36
0.001388 0.025401 0.36
0.000799 0.02533 0.359
0.000214 0.02533 0.359
-0.000371 0.02533 0.359
-0.000956 0.02533 0.359
-0.001541 0.02533 0.359
-0.002126 0.02533 0.359
-0.002711 0.02533 0.359
-0.003296 0.02533 0.359
-0.003881 0.02533 0.359
-0.016862 0.029634 0.42
-0.017546 0.029634 0.42
-0.01823 0.029634 0.42
-0.018915 0.029634 0.42
-0.019599 0.029634 0.42
-0.020284 0.029634 0.42
-0.020968 0.029634 0.42
-0.021653 0.029634 0.42
-0.022337 0.029634 0.42
-0.023022 0.029634 0.42
-0.023706 0.029634 0.42
-0.024391 0.029634 0.42
-0.025075 0.029634 0.42
-0.02576 0.029634 0.42
-0.026444 0.029634 0.42
-0.027129 0.029634 0.42
-0.027813 0.029634 0.42
-0.028498 0.029634 0.42
-0.029182 0.029634 0.42
-0.029867 0.029634 0.42
-0.030624 0.029705 0.421
-0.03131 0.029705 0.421
-0.031996 0.029705 0.421
-0.032682 0.029705 0.421
-0.033448 0.029776 0.422
-0.034135 0.029776 0.422
-0.034823 0.029776 0.422
-0.035511 0.029776 0.422
-0.036284 0.029846 0.423
-0.036974 0.029846 0.423
0.012605 0.024952 0.362
0.012015 0.024952 0.362
0.011393 0.024883 0.361
0.010805 0.024883 0.361
0.010217 0.024883 0.361
0.009602 0.024814 0.36
0.009015 0.024814 0.36
0.008428 0.024814 0.36
0.007842 0.024814 0.36
0.007255 0.024814 0.36
0.006668 0.024814 0.36
0.006082 0.024814 0.36
0.005495 0.024814 0.36
0.004908 0.024814 0.36
0.004322 0.024814 0.36
0.003735 0.024814 0.36
0.003148 0.024814 0.36
0.002561 0.024814 0.36
0.001975 0.024814 0.36
0.001388 0.024814 0.36
0.000799 0.024746 0.359
0.000214 0.024746 0.359
-0.000371 0.024746 0.359
-0.000956 0.024746 0.359
-0.001541 0.024746 0.359
-0.002126 0.024746 0.359
-0.002711 0.024746 0.359
-0.003296 0.024746 0.359
-0.003881 0.024746 0.359
-0.016862 0.02895 0.42
-0.017546 0.02895 0.42
-0.018187 0.028881 0.419
-0.018825 0.028812 0.418
-0.019506 0.028812 0.418
-0.020187 0.028812 0.418
-0.020869 0.028812 0.418
-0.02155 0.028812 0.418
-0.022231 0.028812 0.418
-0.022912 0.028812 0.418
-0.023593 0.028812 0.418
-0.024333 0.028881 0.419
-0.025016 0.028881 0.419
-0.025698 0.028881 0.419
-0.026381 0.028881 0.419
-0.027064 0.028881 0.419
-0.027747 0.028881 0.419
-0.02843 0.028881 0.419
-0.029113 0.028881 0.419
-0.029796 0.028881 0.419
-0.030551 0.02895 0.42
-0.031236 0.02895 0.42
-0.03192 0.02895 0.42
-0.032682 0.029019 0.421
-0.033368 0.029019 0.421
-0.034054 0.029019 0.421
-0.03474 0.029019 0.421
-0.035511 0.029088 0.422
-0.036198 0.029088 0.422
-0.036886 0.029088 0.422
-0.037663 0.029157 0.423
-0.038352 0.029157 0.423
0.012605 0.024362 0.362
0.012015 0.024362 0.362
0.011393 0.024295 0.361
0.010805 0.024295 0.361
0.010217 0.024295 0.361
0.009602 0.024228 0.36
0.009015 0.024228 0.36
0.008428 0.024228 0.36
0.007842 0.024228 0.36
0.007255 0.024228 0.36
0.006668 0.024228 0.36
0.006082 0.024228 0.36
0.005495 0.024228 0.36
0.004908 0.024228 0.36
0.004322 0.024228 0.36
0.003735 0.024228 0.36
0.003148 0.024228 0.36
0.002561 0.024228 0.36
0.001975 0.024228 0.36
0.001388 0.024228 0.36
0.000799 0.024161 0.359
0.000214 0.024161 0.359
-0.000371 0.024161 0.359
-0.000956 0.024161 0.359
-0.001541 0.024161 0.359
-0.002126 0.024161 0.359
-0.002711 0.024161 0.359
-0.003296 0.024161 0.359
-0.003881 0.024161 0.359
-0.004466 0.024161 0.359
-0.005052 0.024161 0.359
-0.018057 0.027997 0.416
-0.018735 0.027997 0.416
-0.019413 0.027997 0.416
-0.020091 0.027997 0.416
-0.020769 0.027997 0.416
-0.021498 0.028064 0.417
-0.022178 0.028064 0.417
-0.022857 0.028064 0.417
-0.023537 0.028064 0.417
-0.024217 0.028064 0.417
-0.024896 0.028064 0.417
-0.025576 0.028064 0.417
-0.026255 0.028064 0.417
-0.027 0.028131 0.418
-0.027681 0.028131 0.418
-0.028362 0.028131 0.418
-0.029043 0.028131 0.418
-0.029724 0.028131 0.418
-0.030478 0.028199 0.419
-0.031161 0.028199 0.419
-0.031844 0.028199 0.419
-0.032605 0.028266 0.42
-0.033289 0.028266 0.42
-0.033973 0.028266 0.42
-0.034658 0.028266 0.42
-0.035427 0.028333 0.421
-0.036198 0.0284 0.422
-0.036886 0.0284 0.422
-0.037574 0.0284 0.422
-0.038352 0.028468 0.423
-0.039042 0.028468 0.423
0.01836 0.024364 0.371
0.017755 0.024364 0.371
0.017104 0.024298 0.37
0.016457 0.024232 0.369
0.015855 0.024232 0.369
0.015171 0.024101 0.367
0.014494 0.02397 0.365
0.013899 0.02397 0.365
0.013268 0.023904 0.364
0.01264 0.023838 0.363
0.012048 0.023838 0.363
0.011425 0.023773 0.362
0.010805 0.023707 0.361
0.010217 0.023707 0.361
0.009628 0.023707 0.361
0.009015 0.023641 0.36
0.008428 0.023641 0.36
0.007842 0.023641 0.36
0.007255 0.023641 0.36
0.006668 0.023641 0.36
0.006082 0.023641 0.36
0.005495 0.023641 0.36
0.004908 0.023641 0.36
0.004322 0.023641 0.36
0.003735 0.023641 0.36
0.003148 0.023641 0.36
0.002561 0.023641 0.36
0.001975 0.023641 0.36
0.001388 0.023641 0.36
0.000799 0.023576 0.359
0.000214 0.023576 0.359
-0.000371 0.023576 0.359
-0.000956 0.023576 0.359
-0.001541 0.023576 0.359
-0.002126 0.023576 0.359
-0.002711 0.023576 0.359
-0.003296 0.023576 0.359
-0.003881 0.023576 0.359
-0.004466 0.023576 0.359
-0.005052 0.023576 0.359
-0.018057 0.027319 0.416
-0.018735 0.027319 0.416
-0.019413 0.027319 0.416
-0.020091 0.027319 0.416
-0.020769 0.027319 0.416
-0.021498 0.027385 0.417
-0.022178 0.027385 0.417
-0.022857 0.027385 0.417
-0.023537 0.027385 0.417
-0.024217 0.027385 0.417
-0.024896 0.027385 0.417
-0.025576 0.027385 0.417
-0.026255 0.027385 0.417
-0.027 0.02745 0.418
-0.027681 0.02745 0.418
-0.028362 0.02745 0.418
-0.029043 0.02745 0.418
-0.029724 0.02745 0.418
-0.030478 0.027516 0.419
-0.031161 0.027516 0.419
-0.031844 0.027516 0.419
-0.032605 0.027582 0.42
-0.033289 0.027582 0.42
-0.033973 0.027582 0.42
-0.034658 0.027582 0.42
-0.035427 0.027647 0.421
-0.036198 0.027713 0.422
-0.036886 0.027713 0.422
-0.037574 0.027713 0.422
-0.038352 0.027779 0.423
-0.039042 0.027779 0.423
-0.039731 0.027779 0.423
-0.04042 0.027779 0.423
-0.041207 0.027844 0.424
-0.041898 0.027844 0.424
-0.042589 0.027844 0.424
0.01836 0.023759 0.371
0.017755 0.023759 0.371
0.017104 0.023695 0.37
0.016457 0.023631 0.369
0.015855 0.023631 0.369
0.015171 0.023503 0.367
0.014494 0.023375 0.365
0.013899 0.023375 0.365
0.013268 0.023311 0.364
0.01264 0.023247 0.363
0.012048 0.023247 0.363
0.011457 0.023247 0.363
0.010835 0.023183 0.362
0.010245 0.023183 0.362
0.009628 0.023119 0.361
0.00904 0.023119 0.361
0.008452 0.023119 0.361
0.007842 0.023055 0.36
0.007255 0.023055 0.36
0.006668 0.023055 0.36
0.006082 0.023055 0.36
0.005495 0.023055 0.36
0.004908 0.023055 0.36
0.004322 0.023055 0.36
0.003735 0.023055 0.36
0.003148 0.023055 0.36
0.002561 0.023055 0.36
0.001975 0.023055 0.36
0.001388 0.023055 0.36
0.000799 0.022991 0.359
0.000214 0.022991 0.359
-0.000371 0.022991 0.359
-0.000956 0.022991 0.359
-0.001541 0.022991 0.359
-0.002126 0.022991 0.359
-0.002711 0.022991 0.359
-0.003296 0.022991 0.359
-0.003881 0.022991 0.359
-0.004466 0.022991 0.359
-0.005052 0.022991 0.359
-0.01797 0.026513 0.414
-0.018645 0.026513 0.414
-0.019319 0.026513 0.414
-0.019994 0.026513 0.414
-0.020669 0.026513 0.414
-0.021395 0.026577 0.415
-0.022071 0.026577 0.415
-0.022748 0.026577 0.415
-0.023424 0.026577 0.415
-0.0241 0.026577 0.415
-0.024777 0.026577 0.415
-0.025453 0.026577 0.415
-0.026192 0.026641 0.416
-0.02687 0.026641 0.416
-0.027548 0.026641 0.416
-0.028226 0.026641 0.416
-0.028904 0.026641 0.416
-0.029582 0.026641 0.416
-0.030333 0.026705 0.417
-0.031012 0.026705 0.417
-0.031768 0.026769 0.418
-0.032449 0.026769 0.418
-0.03313 0.026769 0.418
-0.033973 0.026897 0.42
-0.034658 0.026897 0.42
-0.035342 0.026897 0.42
-0.036113 0.026961 0.421
-0.036799 0.026961 0.421
-0.037574 0.027025 0.422
-0.038262 0.027025 0.422
-0.038949 0.027025 0.422
-0.039637 0.027025 0.422
-0.040325 0.027025 0.422
-0.04111 0.027089 0.423
-0.041799 0.027089 0.423
-0.042489 0.027089 0.423
-0.043178 0.027089 0.423
0.019016 0.023217 0.372
0.01836 0.023155 0.371
0.017755 0.023155 0.371
0.017104 0.023092 0.37
0.016457 0.02303 0.369
0.015855 0.02303 0.369
0.015171 0.022905 0.367
0.014494 0.02278 0.365
0.013899 0.02278 0.365
0.013268 0.022718 0.364
0.01264 0.022655 0.363
0.012048 0.022655 0.363
0.011457 0.022655 0.363
0.010835 0.022593 0.362
0.010245 0.022593 0.362
0.009628 0.022531 0.361
0.00904 0.022531 0.361
0.008452 0.022531 0.361
0.007842 0.022468 0.36
0.007255 0.022468 0.36
0.006668 0.022468 0.36
0.006082 0.022468 0.36
0.005495 0.022468 0.36
0.004908 0.022468 0.36
0.004322 0.022468 0.36
0.003735 0.022468 0.36
0.003148 0.022468 0.36
0.002561 0.022468 0.36
0.001975 0.022468 0.36
0.001388 0.022468 0.36
0.000799 0.022406 0.359
0.000214 0.022406 0.359
-0.000371 0.022406 0.359
-0.000956 0.022406 0.359
-0.001541 0.022406 0.359
-0.002126 0.022406 0.359
-0.002711 0.022406 0.359
-0.003296 0.022406 0.359
-0.003881 0.022406 0.359
-0.004466 0.022406 0.359
-0.005052 0.022406 0.359
-0.0165 0.025651 0.411
-0.01717 0.025651 0.411
-0.01784 0.025651 0.411
-0.01851 0.025651 0.411
-0.019226 0.025714 0.412
-0.019898 0.025714 0.412
-0.020569 0.025714 0.412
-0.021292 0.025776 0.413
-0.021965 0.025776 0.413
-0.022638 0.025776 0.413
-0.023311 0.025776 0.413
-0.023984 0.025776 0.413
-0.024657 0.025776 0.413
-0.02533 0.025776 0.413
-0.026066 0.025838 0.414
-0.026741 0.025838 0.414
-0.027416 0.025838 0.414
-0.028091 0.025838 0.414
-0.028904 0.025963 0.416
-0.029582 0.025963 0.416
-0.030333 0.026026 0.417
-0.031012 0.026026 0.417
-0.031768 0.026088 0.418
-0.032449 0.026088 0.418
-0.03313 0.026088 0.418
-0.033973 0.026213 0.42
-0.034658 0.026213 0.42
-0.035342 0.026213 0.42
-0.036113 0.026275 0.421
-0.036799 0.026275 0.421
-0.037574 0.026338 0.422
-0.038262 0.026338 0.422
-0.038949 0.026338 0.422
-0.039637 0.026338 0.422
-0.040325 0.026338 0.422
-0.04111 0.0264 0.423
-0.041799 0.0264 0.423
-0.042489 0.0264 0.423
-0.043178 0.0264 0.423
0.020228 0.022611 0.372
0.019622 0.022611 0.372
0.019016 0.022611 0.372
0.01836 0.02255 0.371
0.017755 0.02255 0.371
0.017151 0.02255 0.371
0.016457 0.022429 0.369
0.015855 0.022429 0.369
0.015213 0.022368 0.368
0.014534 0.022246 0.366
0.013937 0.022246 0.366
0.013304 0.022186 0.365
0.012675 0.022125 0.364
0.012081 0.022125 0.364
0.011457 0.022064 0.363
0.010835 0.022003 0.362
0.010245 0.022003 0.362
0.009655 0.022003 0.362
0.00904 0.021942 0.361
0.008452 0.021942 0.361
0.007863 0.021942 0.361
0.007275 0.021942 0.361
0.006687 0.021942 0.361
0.006082 0.021882 0.36
0.005495 0.021882 0.36
0.004908 0.021882 0.36
0.004322 0.021882 0.36
0.003735 0.021882 0.36
0.003148 0.021882 0.36
0.002561 0.021882 0.36
0.001975 0.021882 0.36
0.001388 0.021882 0.36
0.000799 0.021821 0.359
0.000214 0.021821 0.359
-0.000371 0.021821 0.359
-0.000956 0.021821 0.359
-0.001541 0.021821 0.359
-0.002126 0.021821 0.359
-0.002711 0.021821 0.359
-0.003296 0.021821 0.359
-0.003881 0.021821 0.359
-0.004466 0.021821 0.359
-0.005052 0.021821 0.359
-0.0165 0.024982 0.411
-0.01717 0.024982 0.411
-0.01784 0.024982 0.411
-0.01851 0.024982 0.411
-0.019226 0.025042 0.412
-0.019898 0.025042 0.412
-0.020569 0.025042 0.412
-0.021292 0.025103 0.413
-0.021965 0.025103 0.413
-0.022638 0.025103 0.413
-0.023311 0.025103 0.413
-0.023984 0.025103 0.413
-0.024657 0.025103 0.413
-0.02533 0.025103 0.413
-0.026066 0.025164 0.414
-0.026741 0.025164 0.414
-0.027416 0.025164 0.414
-0.028091 0.025164 0.414
-0.028835 0.025225 0.415
-0.029511 0.025225 0.415
-0.03026 0.025285 0.416
-0.030938 0.025285 0.416
-0.031616 0.025285 0.416
-0.032372 0.025346 0.417
-0.033051 0.025346 0.417
-0.033812 0.025407 0.418
-0.034575 0.025468 0.419
-0.035258 0.025468 0.419
-0.036027 0.025529 0.42
-0.036711 0.025529 0.42
-0.037485 0.025589 0.421
-0.038171 0.025589 0.421
-0.038857 0.025589 0.421
-0.039543 0.025589 0.421
-0.040229 0.025589 0.421
-0.041013 0.02565 0.422
-0.0417 0.02565 0.422
-0.042388 0.02565 0.422
-0.043076 0.02565 0.422
-0.043764 0.02565 0.422
-0.044451 0.02565 0.422
0.020228 0.022005 0.372
0.019622 0.022005 0.372
0.019016 0.022005 0.372
0.01836 0.021946 0.371
0.017755 0.021946 0.371
0.017151 0.021946 0.371
0.016501 0.021887 0.37
0.015898 0.021887 0.37
0.015254 0.021827 0.369
0.014573 0.021709 0.367
0.013975 0.021709 0.367
0.013341 0.02165 0.366
0.012709 0.021591 0.365
0.012115 0.021591 0.365
0.011488 0.021532 0.364
0.010865 0.021473 0.363
0.010273 0.021473 0.363
0.009655 0.021413 0.362
0.009065 0.021413 0.362
0.008475 0.021413 0.362
0.007863 0.021354 0.361
0.007275 0.021354 0.361
0.006687 0.021354 0.361
0.006099 0.021354 0.361
0.00551 0.021354 0.361
0.004908 0.021295 0.36
0.004322 0.021295 0.36
0.003735 0.021295 0.36
0.003148 0.021295 0.36
0.002561 0.021295 0.36
0.001975 0.021295 0.36
0.001388 0.021295 0.36
0.000799 0.021236 0.359
0.000214 0.021236 0.359
-0.000371 0.021236 0.359
-0.000956 0.021236 0.359
-0.001541 0.021236 0.359
-0.002126 0.021236 0.359
-0.002711 0.021236 0.359
-0.003296 0.021236 0.359
-0.003881 0.021236 0.359
-0.004466 0.021236 0.359
-0.005052 0.021236 0.359
-0.01505 0.024134 0.408
-0.015715 0.024134 0.408
-0.01638 0.024134 0.408
-0.017045 0.024134 0.408
-0.017753 0.024194 0.409
-0.01842 0.024194 0.409
-0.019133 0.024253 0.41
-0.019801 0.024253 0.41
-0.020469 0.024253 0.41
-0.021189 0.024312 0.411
-0.021859 0.024312 0.411
-0.022529 0.024312 0.411
-0.023198 0.024312 0.411
-0.023868 0.024312 0.411
-0.024538 0.024312 0.411
-0.025269 0.024371 0.412
-0.025941 0.024371 0.412
-0.026612 0.024371 0.412
-0.027283 0.024371 0.412
-0.028023 0.02443 0.413
-0.028696 0.02443 0.413
-0.029369 0.02443 0.413
-0.030115 0.024489 0.414
-0.030864 0.024549 0.415
-0.03154 0.024549 0.415
-0.032294 0.024608 0.416
-0.032972 0.024608 0.416
-0.033731 0.024667 0.417
-0.034493 0.024726 0.418
-0.035174 0.024726 0.418
-0.035941 0.024785 0.419
-0.036624 0.024785 0.419
-0.037396 0.024844 0.42
-0.03808 0.024844 0.42
-0.038765 0.024844 0.42
-0.039449 0.024844 0.42
-0.040134 0.024844 0.42
-0.040818 0.024844 0.42
-0.041503 0.024844 0.42
-0.042187 0.024844 0.42
-0.042872 0.024844 0.42
-0.043556 0.024844 0.42
-0.044241 0.024844 0.42
-0.044925 0.024844 0.42
-0.04561 0.024844 0.42
-0.046294 0.024844 0.42
0.020228 0.021399 0.372
0.019622 0.021399 0.372
0.019016 0.021399 0.372
0.01836 0.021341 0.371
0.017755 0.021341 0.371
0.017151 0.021341 0.371
0.016501 0.021284 0.37
0.015898 0.021284 0.37
0.015254 0.021226 0.369
0.014573 0.021111 0.367
0.013975 0.021111 0.367
0.013341 0.021054 0.366
0.012709 0.020996 0.365
0.012115 0.020996 0.365
0.011488 0.020939 0.364
0.010865 0.020881 0.363
0.010273 0.020881 0.363
0.009655 0.020824 0.362
0.009065 0.020824 0.362
0.008475 0.020824 0.362
0.007863 0.020766 0.361
0.007275 0.020766 0.361
0.006687 0.020766 0.361
0.006099 0.020766 0.361
0.00551 0.020766 0.361
0.004908 0.020709 0.36
0.004322 0.020709 0.36
0.003735 0.020709 0.36
0.003148 0.020709 0.36
0.002561 0.020709 0.36
0.001975 0.020709 0.36
0.001388 0.020709 0.36
0.000799 0.020651 0.359
0.000214 0.020651 0.359
-0.000371 0.020651 0.359
-0.000956 0.020651 0.359
-0.001541 0.020651 0.359
-0.002126 0.020651 0.359
-0.002711 0.020651 0.359
-0.003296 0.020651 0.359
-0.003881 0.020651 0.359
-0.004466 0.020651 0.359
-0.005052 0.020651 0.359
-0.012959 0.023297 0.405
-0.013619 0.023297 0.405
-0.014314 0.023355 0.406
-0.014976 0.023355 0.406
-0.015676 0.023412 0.407
-0.01634 0.023412 0.407
-0.017003 0.023412 0.407
-0.017666 0.023412 0.407
-0.018329 0.023412 0.407
-0.019133 0.023585 0.41
-0.019801 0.023585 0.41
-0.020469 0.023585 0.41
-0.021189 0.023642 0.411
-0.021859 0.023642 0.411
-0.022529 0.023642 0.411
-0.023198 0.023642 0.411
-0.023868 0.023642 0.411
-0.024538 0.023642 0.411
-0.025269 0.0237 0.412
-0.025941 0.0237 0.412
-0.026612 0.0237 0.412
-0.027283 0.0237 0.412
-0.028023 0.023757 0.413
-0.028696 0.023757 0.413
-0.029369 0.023757 0.413
-0.030115 0.023815 0.414
-0.030864 0.023872 0.415
-0.03154 0.023872 0.415
-0.032294 0.02393 0.416
-0.032972 0.02393 0.416
-0.033731 0.023987 0.417
-0.034493 0.024045 0.418
-0.035174 0.024045 0.418
-0.035941 0.024102 0.419
-0.036624 0.024102 0.419
-0.037396 0.02416 0.42
-0.03808 0.02416 0.42
-0.038765 0.02416 0.42
-0.039449 0.02416 0.42
-0.040134 0.02416 0.42
-0.040818 0.02416 0.42
-0.041503 0.02416 0.42
-0.042187 0.02416 0.42
-0.042872 0.02416 0.42
-0.043556 0.02416 0.42
-0.044241 0.02416 0.42
-0.044925 0.02416 0.42
-0.04561 0.02416 0.42
-0.046294 0.02416 0.42
0.020228 0.020793 0.372
0.019622 0.020793 0.372
0.019016 0.020793 0.372
0.01836 0.020737 0.371
0.017755 0.020737 0.371
0.017151 0.020737 0.371
0.016501 0.020681 0.37
0.015898 0.020681 0.37
0.015254 0.020625 0.369
0.014613 0.020569 0.368
0.014013 0.020569 0.368
0.013377 0.020513 0.367
0.012744 0.020457 0.366
0.012148 0.020457 0.366
0.01152 0.020401 0.365
0.010865 0.02029 0.363
0.010273 0.02029 0.363
0.009682 0.02029 0.363
0.009065 0.020234 0.362
0.008475 0.020234 0.362
0.007885 0.020234 0.362
0.007275 0.020178 0.361
0.006687 0.020178 0.361
0.006099 0.020178 0.361
0.00551 0.020178 0.361
0.004908 0.020122 0.36
0.004322 0.020122 0.36
0.003735 0.020122 0.36
0.003148 0.020122 0.36
0.002561 0.020122 0.36
0.001975 0.020122 0.36
0.001388 0.020122 0.36
0.000799 0.020066 0.359
0.000214 0.020066 0.359
-0.000371 0.020066 0.359
-0.000956 0.020066 0.359
-0.001541 0.020066 0.359
-0.002126 0.020066 0.359
-0.002711 0.020066 0.359
-0.003296 0.020066 0.359
-0.003881 0.020066 0.359
-0.012959 0.022637 0.405
-0.013619 0.022637 0.405
-0.014314 0.022693 0.406
-0.014976 0.022693 0.406
-0.015676 0.022749 0.407
-0.01634 0.022749 0.407
-0.017003 0.022749 0.407
-0.017666 0.022749 0.407
-0.018329 0.022749 0.407
-0.019039 0.022805 0.408
-0.019704 0.022805 0.408
-0.020369 0.022805 0.408
-0.021086 0.022861 0.409
-0.021752 0.022861 0.409
-0.022419 0.022861 0.409
-0.023142 0.022917 0.41
-0.02381 0.022917 0.41
-0.024478 0.022917 0.41
-0.025146 0.022917 0.41
-0.025815 0.022917 0.41
-0.026483 0.022917 0.41
-0.027151 0.022917 0.41
-0.027887 0.022973 0.411
-0.028557 0.022973 0.411
-0.029227 0.022973 0.411
-0.029969 0.023029 0.412
-0.030715 0.023084 0.413
-0.031388 0.023084 0.413
-0.032139 0.02314 0.414
-0.032813 0.02314 0.414
-0.033569 0.023196 0.415
-0.034328 0.023252 0.416
-0.035006 0.023252 0.416
-0.03577 0.023308 0.417
-0.036449 0.023308 0.417
-0.037218 0.023364 0.418
-0.03799 0.02342 0.419
-0.038673 0.02342 0.419
-0.039355 0.02342 0.419
-0.040038 0.02342 0.419
-0.040721 0.02342 0.419
-0.041404 0.02342 0.419
-0.042087 0.02342 0.419
-0.042668 0.023364 0.418
-0.043349 0.023364 0.418
-0.04403 0.023364 0.418
-0.044711 0.023364 0.418
-0.04561 0.023476 0.42
-0.046294 0.023476 0.42
0.020228 0.020187 0.372
0.019622 0.020187 0.372
0.019016 0.020187 0.372
0.01836 0.020132 0.371
0.017755 0.020132 0.371
0.017151 0.020132 0.371
0.016501 0.020078 0.37
0.015898 0.020078 0.37
0.015254 0.020024 0.369
0.014613 0.01997 0.368
0.014013 0.01997 0.368
0.013377 0.019915 0.367
0.012744 0.019861 0.366
0.012148 0.019861 0.366
0.01152 0.019807 0.365
0.010865 0.019698 0.363
0.010273 0.019698 0.363
0.009682 0.019698 0.363
0.009065 0.019644 0.362
0.008475 0.019644 0.362
0.007885 0.019644 0.362
0.007275 0.01959 0.361
0.006687 0.01959 0.361
0.006099 0.01959 0.361
0.00551 0.01959 0.361
0.004908 0.019535 0.36
0.004322 0.019535 0.36
0.003735 0.019535 0.36
0.003148 0.019535 0.36
0.002561 0.019535 0.36
0.001975 0.019535 0.36
0.001388 0.019535 0.36
0.000799 0.019481 0.359
0.000214 0.019481 0.359
-0.000371 0.019481 0.359
-0.000956 0.019481 0.359
-0.001541 0.019481 0.359
-0.002126 0.019481 0.359
-0.002711 0.019481 0.359
-0.003296 0.019481 0.359
-0.003881 0.019481 0.359
-0.012927 0.021923 0.404
-0.013586 0.021923 0.404
-0.014279 0.021977 0.405
-0.014939 0.021977 0.405
-0.015599 0.021977 0.405
-0.016299 0.022032 0.406
-0.016961 0.022032 0.406
-0.017623 0.022032 0.406
-0.018284 0.022032 0.406
-0.018946 0.022032 0.406
-0.019656 0.022086 0.407
-0.020319 0.022086 0.407
-0.020983 0.022086 0.407
-0.021646 0.022086 0.407
-0.022309 0.022086 0.407
-0.023029 0.02214 0.408
-0.023694 0.02214 0.408
-0.024359 0.02214 0.408
-0.025024 0.02214 0.408
-0.025689 0.02214 0.408
-0.026418 0.022194 0.409
-0.027085 0.022194 0.409
-0.027751 0.022194 0.409
-0.028487 0.022249 0.41
-0.029156 0.022249 0.41
-0.029824 0.022249 0.41
-0.030566 0.022303 0.411
-0.031236 0.022303 0.411
-0.031983 0.022357 0.412
-0.032655 0.022357 0.412
-0.033407 0.022412 0.413
-0.034163 0.022466 0.414
-0.034838 0.022466 0.414
-0.035598 0.02252 0.415
-0.036362 0.022574 0.416
-0.03704 0.022574 0.416
-0.037718 0.022574 0.416
-0.038396 0.022574 0.416
-0.039168 0.022629 0.417
-0.039847 0.022629 0.417
-0.040527 0.022629 0.417
-0.041206 0.022629 0.417
-0.041886 0.022629 0.417
-0.042463 0.022574 0.416
-0.043141 0.022574 0.416
-0.043819 0.022574 0.416
-0.044711 0.022683 0.418
0.020228 0.019581 0.372
0.019622 0.019581 0.372
0.019016 0.019581 0.372
0.01836 0.019528 0.371
0.017755 0.019528 0.371
0.017151 0.019528 0.371
0.016501 0.019475 0.37
0.015898 0.019475 0.37
0.015254 0.019423 0.369
0.014613 0.01937 0.368
0.014013 0.01937 0.368
0.013377 0.019317 0.367
0.012744 0.019265 0.366
0.012148 0.019265 0.366
0.01152 0.019212 0.365
0.010895 0.019159 0.364
0.010302 0.019159 0.364
0.009682 0.019107 0.363
0.009065 0.019054 0.362
0.008475 0.019054 0.362
0.007885 0.019054 0.362
0.007275 0.019002 0.361
0.006687 0.019002 0.361
0.006099 0.019002 0.361
0.005495 0.018949 0.36
0.004908 0.018949 0.36
0.004322 0.018949 0.36
0.003735 0.018949 0.36
0.003148 0.018949 0.36
0.002561 0.018949 0.36
0.001975 0.018949 0.36
0.001384 0.018896 0.359
0.000799 0.018896 0.359
0.000214 0.018896 0.359
-0.000371 0.018896 0.359
-0.000956 0.018896 0.359
-0.001541 0.018896 0.359
-0.002126 0.018896 0.359
-0.002711 0.018896 0.359
-0.003296 0.018896 0.359
-0.003881 0.018896 0.359
-0.012927 0.021265 0.404
-0.013586 0.021265 0.404
-0.014279 0.021318 0.405
-0.014939 0.021318 0.405
-0.015599 0.021318 0.405
-0.016299 0.02137 0.406
-0.016961 0.02137 0.406
-0.017623 0.02137 0.406
-0.018284 0.02137 0.406
-0.018946 0.02137 0.406
-0.019656 0.021423 0.407
-0.020319 0.021423 0.407
-0.020983 0.021423 0.407
-0.021646 0.021423 0.407
-0.022309 0.021423 0.407
-0.023029 0.021475 0.408
-0.023694 0.021475 0.408
-0.024359 0.021475 0.408
-0.025024 0.021475 0.408
-0.025689 0.021475 0.408
-0.026418 0.021528 0.409
-0.027085 0.021528 0.409
-0.027751 0.021528 0.409
-0.028487 0.021581 0.41
-0.029156 0.021581 0.41
-0.029824 0.021581 0.41
-0.030566 0.021633 0.411
-0.031236 0.021633 0.411
-0.031983 0.021686 0.412
-0.032655 0.021686 0.412
-0.033407 0.021739 0.413
-0.034163 0.021791 0.414
-0.034838 0.021791 0.414
-0.035598 0.021844 0.415
-0.036362 0.021897 0.416
-0.03704 0.021897 0.416
-0.037718 0.021897 0.416
-0.038396 0.021897 0.416
-0.039168 0.021949 0.417
-0.039847 0.021949 0.417
-0.040527 0.021949 0.417
-0.041206 0.021949 0.417
-0.041886 0.021949 0.417
-0.042463 0.021897 0.416
-0.043141 0.021897 0.416
-0.043819 0.021897 0.416
-0.044497 0.021897 0.416
-0.045175 0.021897 0.416
-0.045853 0.021897 0.416
0.020228 0.018974 0.372
0.019622 0.018974 0.372
0.019016 0.018974 0.372
0.01836 0.018923 0.371
0.017755 0.018923 0.371
0.017151 0.018923 0.371
0.016546 0.018923 0.371
0.015941 0.018923 0.371
0.015254 0.018821 0.369
0.014613 0.01877 0.368
0.014013 0.01877 0.368
0.013377 0.018719 0.367
0.012744 0.018668 0.366
0.012148 0.018668 0.366
0.01152 0.018617 0.365
0.010895 0.018566 0.364
0.010302 0.018566 0.364
0.009682 0.018515 0.363
0.009065 0.018464 0.362
0.008475 0.018464 0.362
0.007885 0.018464 0.362
0.007275 0.018413 0.361
0.006687 0.018413 0.361
0.006099 0.018413 0.361
0.005495 0.018362 0.36
0.004908 0.018362 0.36
0.004322 0.018362 0.36
0.003735 0.018362 0.36
0.003148 0.018362 0.36
0.002561 0.018362 0.36
0.001975 0.018362 0.36
0.001384 0.018311 0.359
0.000799 0.018311 0.359
0.000214 0.018311 0.359
-0.000371 0.018311 0.359
-0.000956 0.018311 0.359
-0.001541 0.018311 0.359
-0.002126 0.018311 0.359
-0.002711 0.018311 0.359
-0.003296 0.018311 0.359
-0.003881 0.018311 0.359
-0.012895 0.020556 0.403
-0.013552 0.020556 0.403
-0.014209 0.020556 0.403
-0.014865 0.020556 0.403
-0.015561 0.020607 0.404
-0.016219 0.020607 0.404
-0.016878 0.020607 0.404
-0.017579 0.020658 0.405
-0.018239 0.020658 0.405
-0.018899 0.020658 0.405
-0.019559 0.020658 0.405
-0.02022 0.020658 0.405
-0.020931 0.020709 0.406
-0.021593 0.020709 0.406
-0.022254 0.020709 0.406
-0.022916 0.020709 0.406
-0.023578 0.020709 0.406
-0.024239 0.020709 0.406
-0.024962 0.02076 0.407
-0.025626 0.02076 0.407
-0.026289 0.02076 0.407
-0.026952 0.02076 0.407
-0.027616 0.02076 0.407
-0.028348 0.020811 0.408
-0.029013 0.020811 0.408
-0.029678 0.020811 0.408
-0.030417 0.020862 0.409
-0.031084 0.020862 0.409
-0.031828 0.020913 0.41
-0.032576 0.020964 0.411
-0.033245 0.020964 0.411
-0.033998 0.021015 0.412
-0.034669 0.021015 0.412
-0.035426 0.021066 0.413
-0.0361 0.021066 0.413
-0.036773 0.021066 0.413
-0.037536 0.021117 0.414
-0.038211 0.021117 0.414
-0.038886 0.021117 0.414
-0.03956 0.021117 0.414
-0.040235 0.021117 0.414
-0.041009 0.021168 0.415
-0.041685 0.021168 0.415
-0.042259 0.021117 0.414
-0.042934 0.021117 0.414
-0.043609 0.021117 0.414
-0.044283 0.021117 0.414
-0.044958 0.021117 0.414
-0.045523 0.021066 0.413
-0.046196 0.021066 0.413
0.020228 0.018368 0.372
0.019622 0.018368 0.372
0.019016 0.018368 0.372
0.01836 0.018319 0.371
0.017755 0.018319 0.371
0.017151 0.018319 0.371
0.016546 0.018319 0.371
0.015941 0.018319 0.371
0.015254 0.01822 0.369
0.014613 0.018171 0.368
0.014013 0.018171 0.368
0.013377 0.018121 0.367
0.012744 0.018072 0.366
0.012148 0.018072 0.366
0.01152 0.018023 0.365
0.010895 0.017973 0.364
0.010302 0.017973 0.364
0.009682 0.017924 0.363
0.009065 0.017875 0.362
0.008475 0.017875 0.362
0.007885 0.017875 0.362
0.007275 0.017825 0.361
0.006687 0.017825 0.361
0.006099 0.017825 0.361
0.005495 0.017776 0.36
0.004908 0.017776 0.36
0.004322 0.017776 0.36
0.003735 0.017776 0.36
0.003148 0.017776 0.36
0.002561 0.017776 0.36
0.001975 0.017776 0.36
0.001384 0.017726 0.359
0.000799 0.017726 0.359
0.000214 0.017726 0.359
-0.000371 0.017726 0.359
-0.000956 0.017726 0.359
-0.001541 0.017726 0.359
-0.002126 0.017726 0.359
-0.002711 0.017726 0.359
-0.003296 0.017726 0.359
-0.003881 0.017726 0.359
-0.011553 0.01985 0.402
-0.012208 0.01985 0.402
-0.012863 0.01985 0.402
-0.013518 0.01985 0.402
-0.014209 0.019899 0.403
-0.014865 0.019899 0.403
-0.015522 0.019899 0.403
-0.016179 0.019899 0.403
-0.016836 0.019899 0.403
-0.017493 0.019899 0.403
-0.018149 0.019899 0.403
-0.018806 0.019899 0.403
-0.019511 0.019948 0.404
-0.02017 0.019948 0.404
-0.020828 0.019948 0.404
-0.021486 0.019948 0.404
-0.022145 0.019948 0.404
-0.022803 0.019948 0.404
-0.02352 0.019998 0.405
-0.02418 0.019998 0.405
-0.02484 0.019998 0.405
-0.0255 0.019998 0.405
-0.02616 0.019998 0.405
-0.026886 0.020047 0.406
-0.027548 0.020047 0.406
-0.028209 0.020047 0.406
-0.028942 0.020097 0.407
-0.029605 0.020097 0.407
-0.030269 0.020097 0.407
-0.030932 0.020097 0.407
-0.031673 0.020146 0.408
-0.032338 0.020146 0.408
-0.033003 0.020146 0.408
-0.033998 0.020343 0.412
-0.034669 0.020343 0.412
-0.035426 0.020393 0.413
-0.0361 0.020393 0.413
-0.036773 0.020393 0.413
-0.037536 0.020442 0.414
-0.038211 0.020442 0.414
-0.038886 0.020442 0.414
-0.03956 0.020442 0.414
-0.040235 0.020442 0.414
-0.041009 0.020492 0.415
-0.041685 0.020492 0.415
-0.042259 0.020442 0.414
-0.042934 0.020442 0.414
-0.043609 0.020442 0.414
-0.044283 0.020442 0.414
-0.044958 0.020442 0.414
-0.045523 0.020393 0.413
-0.046196 0.020393 0.413
0.022165 0.017858 0.374
0.021498 0.01781 0.373
0.02089 0.01781 0.373
0.020283 0.01781 0.373
0.019622 0.017762 0.372
0.019016 0.017762 0.372
0.01836 0.017714 0.371
0.017755 0.017714 0.371
0.017151 0.017714 0.371
0.016546 0.017714 0.371
0.015941 0.017714 0.371
0.015254 0.017619 0.369
0.014653 0.017619 0.369
0.014051 0.017619 0.369
0.013414 0.017571 0.368
0.012744 0.017476 0.366
0.012148 0.017476 0.366
0.01152 0.017428 0.365
0.010895 0.01738 0.364
0.010302 0.01738 0.364
0.009682 0.017332 0.363
0.009065 0.017285 0.362
0.008475 0.017285 0.362
0.007885 0.017285 0.362
0.007275 0.017237 0.361
0.006687 0.017237 0.361
0.006099 0.017237 0.361
0.005495 0.017189 0.36
0.004908 0.017189 0.36
0.004322 0.017189 0.36
0.003735 0.017189 0.36
0.003148 0.017189 0.36
0.002561 0.017189 0.36
0.001975 0.017189 0.36
0.001388 0.017189 0.36
0.000799 0.017141 0.359
0.000214 0.017141 0.359
-0.000371 0.017141 0.359
-0.000956 0.017141 0.359
-0.001541 0.017141 0.359
-0.002126 0.017141 0.359
-0.002711 0.017141 0.359
-0.003296 0.017141 0.359
-0.011553 0.019195 0.402
-0.012208 0.019195 0.402
-0.012863 0.019195 0.402
-0.013518 0.019195 0.402
-0.014209 0.019242 0.403
-0.014865 0.019242 0.403
-0.015522 0.019242 0.403
-0.016179 0.019242 0.403
-0.016836 0.019242 0.403
-0.017493 0.019242 0.403
-0.018149 0.019242 0.403
-0.018806 0.019242 0.403
-0.019511 0.01929 0.404
-0.02017 0.01929 0.404
-0.020828 0.01929 0.404
-0.021486 0.01929 0.404
-0.022145 0.01929 0.404
-0.022803 0.01929 0.404
-0.02352 0.019338 0.405
-0.02418 0.019338 0.405
