ply
format ascii 1.0
comment Created by Open3D
element vertex 1968
property double x
property double y
property double z
end_header
-0.02381 0.012228 0.41
-0.024478 0.012228 0.41
-0.025146 0.012228 0.41
-0.025815 0.012228 0.41
-0.026483 0.012228 0.41
-0.027151 0.012228 0.41
-0.027819 0.012228 0.41
-0.028487 0.012228 0.41
-0.029156 0.012228 0.41
-0.029824 0.012228 0.41
-0.030492 0.012228 0.41
-0.03116 0.012228 0.41
-0.031828 0.012228 0.41
-0.032496 0.012228 0.41
-0.033165 0.012228 0.41
-0.033833 0.012228 0.41
-0.034585 0.012258 0.411
-0.035255 0.012258 0.411
-0.035925 0.012258 0.411
-0.036595 0.012258 0.411
-0.037264 0.012258 0.411
-0.037934 0.012258 0.411
-0.038604 0.012258 0.411
-0.039274 0.012258 0.411
-0.040041 0.012288 0.412
-0.040712 0.012288 0.412
-0.041384 0.012288 0.412
-0.042055 0.012288 0.412
-0.042727 0.012288 0.412
-0.043503 0.012318 0.413
-0.044176 0.012318 0.413
-0.045067 0.012378 0.415
-0.045743 0.012378 0.415
-0.046643 0.012437 0.417
-0.050308 0.012676 0.425
-0.051001 0.012676 0.425
-0.05218 0.012795 0.429
-0.052879 0.012795 0.429
-0.053953 0.012885 0.432
-0.054657 0.012885 0.432
-0.055489 0.012914 0.433
-0.056195 0.012914 0.433
-0.057032 0.012944 0.434
-0.057872 0.012974 0.435
-0.058581 0.012974 0.435
-0.059154 0.012944 0.434
-0.059861 0.012944 0.434
-0.060569 0.012944 0.434
-0.061276 0.012944 0.434
-0.061983 0.012944 0.434
-0.06269 0.012944 0.434
0.028242 0.010771 0.382
0.02762 0.010771 0.382
0.026997 0.010771 0.382
0.026375 0.010771 0.382
0.025752 0.010771 0.382
0.02513 0.010771 0.382
0.024507 0.010771 0.382
0.023885 0.010771 0.382
0.023262 0.010771 0.382
0.02264 0.010771 0.382
0.022017 0.010771 0.382
0.021394 0.010771 0.382
0.020772 0.010771 0.382
0.020149 0.010771 0.382
0.019527 0.010771 0.382
0.018954 0.010799 0.383
0.01833 0.010799 0.383
0.017705 0.010799 0.383
0.01717 0.010856 0.385
0.016543 0.010856 0.385
0.016122 0.010996 0.39
0.015487 0.010996 0.39
0.013309 0.011307 0.401
0.012656 0.011307 0.401
0.012092 0.011391 0.404
0.011434 0.011391 0.404
0.010855 0.011476 0.407
0.010192 0.011476 0.407
0.009482 0.011419 0.405
0.008822 0.011419 0.405
0.008162 0.011419 0.405
0.007502 0.011419 0.405
0.006859 0.011448 0.406
0.006197 0.011448 0.406
0.005535 0.011448 0.406
0.004874 0.011448 0.406
0.004222 0.011476 0.407
0.003559 0.011476 0.407
0.002896 0.011476 0.407
0.002238 0.011504 0.408
0.001573 0.011504 0.408
0.000908 0.011504 0.408
0.000243 0.011504 0.408
-0.000422 0.011504 0.408
-0.001089 0.011532 0.409
-0.001756 0.011532 0.409
-0.002422 0.011532 0.409
-0.003096 0.01156 0.41
-0.003765 0.01156 0.41
-0.004433 0.01156 0.41
-0.005101 0.01156 0.41
-0.005769 0.01156 0.41
-0.006453 0.011589 0.411
-0.007123 0.011589 0.411
-0.007793 0.011589 0.411
-0.008462 0.011589 0.411
-0.009132 0.011589 0.411
-0.009802 0.011589 0.411
-0.010472 0.011589 0.411
-0.011142 0.011589 0.411
-0.011812 0.011589 0.411
-0.012481 0.011589 0.411
-0.013151 0.011589 0.411
-0.013787 0.01156 0.41
-0.014456 0.01156 0.41
-0.015124 0.01156 0.41
-0.015792 0.01156 0.41
-0.01646 0.01156 0.41
-0.017128 0.01156 0.41
-0.017796 0.01156 0.41
-0.018465 0.01156 0.41
-0.019133 0.01156 0.41
-0.019801 0.01156 0.41
-0.020469 0.01156 0.41
-0.021137 0.01156 0.41
-0.021806 0.01156 0.41
-0.022419 0.011532 0.409
-0.023085 0.011532 0.409
-0.023752 0.011532 0.409
-0.024419 0.011532 0.409
-0.025085 0.011532 0.409
-0.025752 0.011532 0.409
-0.026418 0.011532 0.409
-0.027151 0.01156 0.41
-0.027819 0.01156 0.41
-0.028487 0.01156 0.41
-0.029156 0.01156 0.41
-0.029824 0.01156 0.41
-0.030492 0.01156 0.41
-0.03116 0.01156 0.41
-0.031828 0.01156 0.41
-0.032496 0.01156 0.41
-0.033165 0.01156 0.41
-0.033833 0.01156 0.41
-0.034501 0.01156 0.41
-0.035169 0.01156 0.41
-0.035837 0.01156 0.41
-0.036505 0.01156 0.41
-0.037174 0.01156 0.41
-0.037934 0.011589 0.411
-0.038604 0.011589 0.411
-0.039274 0.011589 0.411
-0.039944 0.011589 0.411
-0.040613 0.011589 0.411
-0.041283 0.011589 0.411
-0.041953 0.011589 0.411
-0.042727 0.011617 0.412
-0.043503 0.011645 0.413
-0.044176 0.011645 0.413
-0.045067 0.011701 0.415
-0.045743 0.011701 0.415
-0.046755 0.011786 0.418
-0.048808 0.011955 0.424
-0.049499 0.011955 0.424
-0.05019 0.011955 0.424
-0.051121 0.012012 0.426
-0.05218 0.012096 0.429
-0.052879 0.012096 0.429
-0.053953 0.012181 0.432
-0.054657 0.012181 0.432
-0.055489 0.012209 0.433
-0.056195 0.012209 0.433
-0.057032 0.012237 0.434
-0.057872 0.012265 0.435
-0.058581 0.012265 0.435
-0.059154 0.012237 0.434
-0.059861 0.012237 0.434
-0.060569 0.012237 0.434
-0.061276 0.012237 0.434
-0.061983 0.012237 0.434
-0.06269 0.012237 0.434
0.028242 0.010149 0.382
0.02762 0.010149 0.382
0.026997 0.010149 0.382
0.026375 0.010149 0.382
0.025752 0.010149 0.382
0.02513 0.010149 0.382
0.024507 0.010149 0.382
0.023885 0.010149 0.382
0.023262 0.010149 0.382
0.02264 0.010149 0.382
0.022017 0.010149 0.382
0.021394 0.010149 0.382
0.020772 0.010149 0.382
0.020149 0.010149 0.382
0.019527 0.010149 0.382
0.018954 0.010175 0.383
0.01833 0.010175 0.383
0.017705 0.010175 0.383
0.01717 0.010228 0.385
0.016543 0.010228 0.385
0.016122 0.010361 0.39
0.015487 0.010361 0.39
0.013309 0.010653 0.401
0.012656 0.010653 0.401
0.012092 0.010733 0.404
0.011434 0.010733 0.404
0.010855 0.010813 0.407
0.010192 0.010813 0.407
0.009505 0.010786 0.406
0.008844 0.010786 0.406
0.008182 0.010786 0.406
0.00752 0.010786 0.406
0.006876 0.010813 0.407
0.006212 0.010813 0.407
0.005549 0.010813 0.407
0.004886 0.010813 0.407
0.004222 0.010813 0.407
0.003568 0.010839 0.408
0.002903 0.010839 0.408
0.002238 0.010839 0.408
0.001573 0.010839 0.408
0.000908 0.010839 0.408
0.000244 0.010866 0.409
-0.000423 0.010866 0.409
-0.001089 0.010866 0.409
-0.00176 0.010892 0.41
-0.002428 0.010892 0.41
-0.003096 0.010892 0.41
-0.003765 0.010892 0.41
-0.004433 0.010892 0.41
-0.005101 0.010892 0.41
-0.005769 0.010892 0.41
-0.006437 0.010892 0.41
-0.007123 0.010919 0.411
-0.007793 0.010919 0.411
-0.008462 0.010919 0.411
-0.009132 0.010919 0.411
-0.009802 0.010919 0.411
-0.010472 0.010919 0.411
-0.011115 0.010892 0.41
-0.011783 0.010892 0.41
-0.012451 0.010892 0.41
-0.013119 0.010892 0.41
-0.013787 0.010892 0.41
-0.014456 0.010892 0.41
-0.015124 0.010892 0.41
-0.015792 0.010892 0.41
-0.01646 0.010892 0.41
-0.017128 0.010892 0.41
-0.017796 0.010892 0.41
-0.018465 0.010892 0.41
-0.019133 0.010892 0.41
-0.019801 0.010892 0.41
-0.020469 0.010892 0.41
-0.021137 0.010892 0.41
-0.021806 0.010892 0.41
-0.022419 0.010866 0.409
-0.023085 0.010866 0.409
-0.023752 0.010866 0.409
-0.024419 0.010866 0.409
-0.025085 0.010866 0.409
-0.025752 0.010866 0.409
-0.026418 0.010866 0.409
-0.027151 0.010892 0.41
-0.027819 0.010892 0.41
-0.028487 0.010892 0.41
-0.029156 0.010892 0.41
-0.029824 0.010892 0.41
-0.030492 0.010892 0.41
-0.03116 0.010892 0.41
-0.031828 0.010892 0.41
-0.032496 0.010892 0.41
-0.033165 0.010892 0.41
-0.033833 0.010892 0.41
-0.034501 0.010892 0.41
-0.035169 0.010892 0.41
-0.035837 0.010892 0.41
-0.036505 0.010892 0.41
-0.037174 0.010892 0.41
-0.037934 0.010919 0.411
-0.038604 0.010919 0.411
-0.039274 0.010919 0.411
-0.039944 0.010919 0.411
-0.040613 0.010919 0.411
-0.041283 0.010919 0.411
-0.041953 0.010919 0.411
-0.042727 0.010946 0.412
-0.043503 0.010972 0.413
-0.044176 0.010972 0.413
-0.045067 0.011025 0.415
-0.045743 0.011025 0.415
-0.048808 0.011264 0.424
-0.049499 0.011264 0.424
-0.05019 0.011264 0.424
-0.051121 0.011317 0.426
-0.052302 0.011424 0.43
-0.053003 0.011424 0.43
-0.053953 0.011477 0.432
-0.054657 0.011477 0.432
-0.055489 0.011503 0.433
-0.056195 0.011503 0.433
-0.057032 0.01153 0.434
-0.057739 0.01153 0.434
-0.058447 0.01153 0.434
-0.059154 0.01153 0.434
-0.059861 0.01153 0.434
-0.060569 0.01153 0.434
-0.061276 0.01153 0.434
-0.061983 0.01153 0.434
-0.06269 0.01153 0.434
-0.063398 0.01153 0.434
-0.064105 0.01153 0.434
-0.064962 0.011557 0.435
-0.065671 0.011557 0.435
-0.066379 0.011557 0.435
0.028316 0.009551 0.383
0.027692 0.009551 0.383
0.027068 0.009551 0.383
0.026375 0.009526 0.382
0.025752 0.009526 0.382
0.02513 0.009526 0.382
0.024507 0.009526 0.382
0.023885 0.009526 0.382
0.023262 0.009526 0.382
0.02264 0.009526 0.382
0.022017 0.009526 0.382
0.021394 0.009526 0.382
0.020826 0.009551 0.383
0.020202 0.009551 0.383
0.019578 0.009551 0.383
0.018521 0.009651 0.387
0.01789 0.009651 0.387
0.017349 0.009701 0.389
0.016715 0.009701 0.389
0.013442 0.0101 0.405
0.012782 0.0101 0.405
0.012182 0.01015 0.407
0.011519 0.01015 0.407
0.010909 0.010199 0.409
0.010242 0.010199 0.409
0.009552 0.010175 0.408
0.008887 0.010175 0.408
0.008222 0.010175 0.408
0.007557 0.010175 0.408
0.006909 0.010199 0.409
0.006243 0.010199 0.409
0.005576 0.010199 0.409
0.004898 0.010175 0.408
0.004233 0.010175 0.408
0.003577 0.010199 0.409
0.00291 0.010199 0.409
0.002244 0.010199 0.409
0.001577 0.010199 0.409
0.00091 0.010199 0.409
0.000244 0.010224 0.41
-0.000424 0.010224 0.41
-0.001092 0.010224 0.41
-0.00176 0.010224 0.41
-0.002428 0.010224 0.41
-0.003096 0.010224 0.41
-0.003765 0.010224 0.41
-0.004433 0.010224 0.41
-0.005101 0.010224 0.41
-0.005769 0.010224 0.41
-0.006437 0.010224 0.41
-0.007123 0.010249 0.411
-0.007793 0.010249 0.411
-0.008462 0.010249 0.411
-0.009132 0.010249 0.411
-0.009802 0.010249 0.411
-0.010472 0.010249 0.411
-0.011115 0.010224 0.41
-0.011783 0.010224 0.41
-0.012451 0.010224 0.41
-0.013119 0.010224 0.41
-0.013787 0.010224 0.41
-0.014456 0.010224 0.41
-0.015124 0.010224 0.41
-0.015792 0.010224 0.41
-0.01646 0.010224 0.41
-0.017128 0.010224 0.41
-0.017796 0.010224 0.41
-0.018465 0.010224 0.41
-0.019133 0.010224 0.41
-0.019801 0.010224 0.41
-0.020419 0.010199 0.409
-0.021086 0.010199 0.409
-0.021752 0.010199 0.409
-0.022419 0.010199 0.409
-0.023085 0.010199 0.409
-0.023752 0.010199 0.409
-0.024419 0.010199 0.409
-0.025085 0.010199 0.409
-0.025752 0.010199 0.409
-0.026418 0.010199 0.409
-0.027085 0.010199 0.409
-0.027751 0.010199 0.409
-0.028418 0.010199 0.409
-0.029084 0.010199 0.409
-0.029751 0.010199 0.409
-0.030417 0.010199 0.409
-0.031084 0.010199 0.409
-0.031828 0.010224 0.41
-0.032496 0.010224 0.41
-0.033165 0.010224 0.41
-0.033833 0.010224 0.41
-0.034501 0.010224 0.41
-0.035169 0.010224 0.41
-0.035837 0.010224 0.41
-0.036505 0.010224 0.41
-0.037174 0.010224 0.41
-0.037842 0.010224 0.41
-0.03851 0.010224 0.41
-0.039274 0.010249 0.411
-0.039944 0.010249 0.411
-0.040613 0.010249 0.411
-0.041283 0.010249 0.411
-0.041953 0.010249 0.411
-0.042727 0.010274 0.412
-0.043503 0.010299 0.413
-0.044176 0.010299 0.413
-0.045067 0.010349 0.415
-0.045743 0.010349 0.415
-0.048808 0.010574 0.424
-0.049499 0.010574 0.424
-0.05019 0.010574 0.424
-0.051121 0.010623 0.426
-0.052302 0.010723 0.43
-0.053003 0.010723 0.43
-0.053953 0.010773 0.432
-0.054657 0.010773 0.432
-0.055489 0.010798 0.433
-0.056325 0.010823 0.434
-0.057032 0.010823 0.434
-0.057739 0.010823 0.434
-0.058447 0.010823 0.434
-0.059154 0.010823 0.434
-0.059861 0.010823 0.434
-0.060569 0.010823 0.434
-0.061276 0.010823 0.434
-0.061983 0.010823 0.434
-0.06269 0.010823 0.434
-0.063398 0.010823 0.434
-0.064105 0.010823 0.434
-0.064962 0.010848 0.435
-0.065671 0.010848 0.435
-0.066379 0.010848 0.435
-0.067243 0.010873 0.436
-0.068109 0.010898 0.437
-0.068821 0.010898 0.437
-0.069693 0.010923 0.438
-0.070406 0.010923 0.438
-0.071283 0.010948 0.439
-0.072162 0.010973 0.44
-0.072879 0.010973 0.44
0.026444 0.008927 0.383
0.02582 0.008927 0.383
0.025196 0.008927 0.383
0.024571 0.008927 0.383
0.023947 0.008927 0.383
0.023323 0.008927 0.383
0.022699 0.008927 0.383
0.022075 0.008927 0.383
0.02145 0.008927 0.383
0.020881 0.00895 0.384
0.020308 0.008974 0.385
0.01968 0.008974 0.385
0.018521 0.00902 0.387
0.01789 0.00902 0.387
0.017349 0.009067 0.389
0.016715 0.009067 0.389
0.014835 0.009486 0.407
0.014172 0.009486 0.407
0.013442 0.00944 0.405
0.012782 0.00944 0.405
0.012182 0.009486 0.407
0.011519 0.009486 0.407
0.010909 0.009533 0.409
0.010242 0.009533 0.409
0.009552 0.00951 0.408
0.008887 0.00951 0.408
0.008222 0.00951 0.408
0.007557 0.00951 0.408
0.006909 0.009533 0.409
0.006243 0.009533 0.409
0.005576 0.009533 0.409
0.004898 0.00951 0.408
0.004233 0.00951 0.408
0.003577 0.009533 0.409
0.00291 0.009533 0.409
0.002244 0.009533 0.409
0.001577 0.009533 0.409
0.00091 0.009533 0.409
0.000244 0.009556 0.41
-0.000424 0.009556 0.41
-0.001092 0.009556 0.41
-0.00176 0.009556 0.41
-0.002428 0.009556 0.41
-0.003096 0.009556 0.41
-0.003765 0.009556 0.41
-0.004433 0.009556 0.41
-0.005101 0.009556 0.41
-0.005769 0.009556 0.41
-0.006437 0.009556 0.41
-0.007106 0.009556 0.41
-0.007774 0.009556 0.41
-0.008442 0.009556 0.41
-0.00911 0.009556 0.41
-0.009778 0.009556 0.41
-0.010446 0.009556 0.41
-0.011115 0.009556 0.41
-0.011783 0.009556 0.41
-0.012451 0.009556 0.41
-0.013119 0.009556 0.41
-0.013787 0.009556 0.41
-0.014456 0.009556 0.41
-0.015124 0.009556 0.41
-0.015792 0.009556 0.41
-0.01646 0.009556 0.41
-0.017128 0.009556 0.41
-0.017796 0.009556 0.41
-0.018465 0.009556 0.41
-0.019086 0.009533 0.409
-0.019753 0.009533 0.409
-0.020419 0.009533 0.409
-0.021086 0.009533 0.409
-0.021752 0.009533 0.409
-0.022419 0.009533 0.409
-0.023085 0.009533 0.409
-0.023752 0.009533 0.409
-0.024419 0.009533 0.409
-0.025085 0.009533 0.409
-0.025752 0.009533 0.409
-0.026418 0.009533 0.409
-0.027085 0.009533 0.409
-0.027751 0.009533 0.409
-0.028418 0.009533 0.409
-0.029084 0.009533 0.409
-0.029751 0.009533 0.409
-0.030417 0.009533 0.409
-0.031084 0.009533 0.409
-0.031751 0.009533 0.409
-0.032417 0.009533 0.409
-0.033084 0.009533 0.409
-0.033833 0.009556 0.41
-0.034501 0.009556 0.41
-0.035169 0.009556 0.41
-0.035837 0.009556 0.41
-0.036505 0.009556 0.41
-0.037174 0.009556 0.41
-0.037842 0.009556 0.41
-0.03851 0.009556 0.41
-0.039274 0.00958 0.411
-0.039944 0.00958 0.411
-0.040613 0.00958 0.411
-0.041283 0.00958 0.411
-0.041953 0.00958 0.411
-0.042727 0.009603 0.412
-0.043503 0.009626 0.413
-0.044176 0.009626 0.413
-0.045175 0.009696 0.416
-0.045853 0.009696 0.416
-0.048808 0.009883 0.424
-0.049499 0.009883 0.424
-0.05019 0.009883 0.424
-0.051241 0.009953 0.427
-0.052302 0.010023 0.43
-0.053003 0.010023 0.43
-0.054078 0.010092 0.433
-0.054784 0.010092 0.433
-0.055489 0.010092 0.433
-0.056325 0.010116 0.434
-0.057032 0.010116 0.434
-0.057739 0.010116 0.434
-0.058447 0.010116 0.434
-0.059154 0.010116 0.434
-0.059861 0.010116 0.434
-0.060569 0.010116 0.434
-0.061276 0.010116 0.434
-0.062126 0.010139 0.435
-0.062835 0.010139 0.435
-0.063544 0.010139 0.435
-0.064253 0.010139 0.435
-0.064962 0.010139 0.435
-0.065671 0.010139 0.435
-0.066379 0.010139 0.435
-0.067243 0.010162 0.436
-0.068109 0.010186 0.437
-0.068821 0.010186 0.437
-0.069693 0.010209 0.438
-0.070406 0.010209 0.438
-0.071283 0.010232 0.439
-0.072162 0.010256 0.44
-0.072879 0.010256 0.44
0.026444 0.008303 0.383
0.02582 0.008303 0.383
0.025196 0.008303 0.383
0.024571 0.008303 0.383
0.023947 0.008303 0.383
0.023323 0.008303 0.383
0.022699 0.008303 0.383
0.022075 0.008303 0.383
0.02145 0.008303 0.383
0.020881 0.008325 0.384
0.020308 0.008346 0.385
0.01968 0.008346 0.385
0.015651 0.00891 0.411
0.014835 0.008823 0.407
0.014172 0.008823 0.407
0.013509 0.008823 0.407
0.012971 0.00891 0.411
0.012302 0.00891 0.411
0.01166 0.008932 0.412
0.010989 0.008932 0.412
0.010292 0.00891 0.411
0.009622 0.00891 0.411
0.008953 0.00891 0.411
0.008283 0.00891 0.411
0.007613 0.00891 0.411
0.006943 0.00891 0.411
0.006258 0.008888 0.41
0.00559 0.008888 0.41
0.004922 0.008888 0.41
0.004254 0.008888 0.41
0.003585 0.008888 0.41
0.002917 0.008888 0.41
0.002249 0.008888 0.41
0.001581 0.008888 0.41
0.000913 0.008888 0.41
0.000244 0.008888 0.41
-0.000424 0.008888 0.41
-0.001092 0.008888 0.41
-0.00176 0.008888 0.41
-0.002428 0.008888 0.41
-0.003096 0.008888 0.41
-0.003765 0.008888 0.41
-0.004433 0.008888 0.41
-0.005101 0.008888 0.41
-0.005769 0.008888 0.41
-0.006437 0.008888 0.41
-0.007106 0.008888 0.41
-0.007774 0.008888 0.41
-0.008442 0.008888 0.41
-0.00911 0.008888 0.41
-0.009778 0.008888 0.41
-0.010446 0.008888 0.41
-0.011115 0.008888 0.41
-0.011783 0.008888 0.41
-0.012451 0.008888 0.41
-0.013119 0.008888 0.41
-0.013787 0.008888 0.41
-0.014456 0.008888 0.41
-0.015124 0.008888 0.41
-0.015792 0.008888 0.41
-0.01646 0.008888 0.41
-0.017128 0.008888 0.41
-0.017796 0.008888 0.41
-0.018465 0.008888 0.41
-0.019086 0.008867 0.409
-0.019753 0.008867 0.409
-0.020419 0.008867 0.409
-0.021086 0.008867 0.409
-0.021752 0.008867 0.409
-0.022419 0.008867 0.409
-0.023085 0.008867 0.409
-0.023752 0.008867 0.409
-0.024419 0.008867 0.409
-0.025085 0.008867 0.409
-0.025752 0.008867 0.409
-0.026418 0.008867 0.409
-0.027085 0.008867 0.409
-0.027751 0.008867 0.409
-0.028418 0.008867 0.409
-0.029084 0.008867 0.409
-0.029751 0.008867 0.409
-0.030417 0.008867 0.409
-0.031084 0.008867 0.409
-0.031751 0.008867 0.409
-0.032417 0.008867 0.409
-0.033084 0.008867 0.409
-0.033833 0.008888 0.41
-0.034501 0.008888 0.41
-0.035169 0.008888 0.41
-0.035837 0.008888 0.41
-0.036505 0.008888 0.41
-0.037174 0.008888 0.41
-0.037842 0.008888 0.41
-0.03851 0.008888 0.41
-0.039274 0.00891 0.411
-0.039944 0.00891 0.411
-0.040613 0.00891 0.411
-0.041283 0.00891 0.411
-0.041953 0.00891 0.411
-0.042727 0.008932 0.412
-0.043503 0.008953 0.413
-0.044176 0.008953 0.413
-0.045175 0.009018 0.416
-0.045853 0.009018 0.416
-0.046755 0.009062 0.418
-0.048808 0.009192 0.424
-0.049499 0.009192 0.424
-0.05019 0.009192 0.424
-0.051241 0.009257 0.427
-0.052302 0.009322 0.43
-0.053003 0.009322 0.43
-0.053953 0.009365 0.432
-0.054657 0.009365 0.432
-0.055489 0.009387 0.433
-0.056325 0.009409 0.434
-0.057032 0.009409 0.434
-0.057739 0.009409 0.434
-0.058447 0.009409 0.434
-0.059154 0.009409 0.434
-0.059861 0.009409 0.434
-0.060569 0.009409 0.434
-0.061276 0.009409 0.434
-0.062126 0.00943 0.435
-0.062835 0.00943 0.435
-0.063544 0.00943 0.435
-0.064253 0.00943 0.435
-0.064962 0.00943 0.435
-0.065671 0.00943 0.435
-0.066379 0.00943 0.435
-0.067243 0.009452 0.436
-0.068109 0.009474 0.437
-0.068821 0.009474 0.437
-0.069693 0.009495 0.438
-0.070406 0.009495 0.438
-0.071283 0.009517 0.439
-0.072162 0.009539 0.44
-0.072879 0.009539 0.44
-0.073763 0.00956 0.441
-0.074482 0.00956 0.441
0.015651 0.00824 0.411
0.014981 0.00824 0.411
0.014311 0.00824 0.411
0.013741 0.008301 0.414
0.013098 0.008321 0.415
0.012421 0.008321 0.415
0.011745 0.008321 0.415
0.011095 0.008341 0.416
0.010392 0.008321 0.415
0.009716 0.008321 0.415
0.009018 0.008301 0.414
0.008323 0.00828 0.413
0.00765 0.00828 0.413
0.006977 0.00828 0.413
0.006304 0.00828 0.413
0.005631 0.00828 0.413
0.004946 0.00826 0.412
0.004274 0.00826 0.412
0.003603 0.00826 0.412
0.002924 0.00824 0.411
0.002255 0.00824 0.411
0.001585 0.00824 0.411
0.000915 0.00824 0.411
0.000245 0.00824 0.411
-0.000425 0.00824 0.411
-0.001095 0.00824 0.411
-0.001764 0.00824 0.411
-0.002434 0.00824 0.411
-0.003096 0.00822 0.41
-0.003765 0.00822 0.41
-0.004433 0.00822 0.41
-0.005101 0.00822 0.41
-0.005769 0.00822 0.41
-0.006437 0.00822 0.41
-0.007106 0.00822 0.41
-0.007774 0.00822 0.41
-0.008442 0.00822 0.41
-0.00911 0.00822 0.41
-0.009778 0.00822 0.41
-0.010446 0.00822 0.41
-0.011115 0.00822 0.41
-0.011783 0.00822 0.41
-0.012451 0.00822 0.41
-0.013119 0.00822 0.41
-0.013787 0.00822 0.41
-0.014456 0.00822 0.41
-0.015087 0.0082 0.409
-0.015753 0.0082 0.409
-0.01642 0.0082 0.409
-0.017086 0.0082 0.409
-0.017753 0.0082 0.409
-0.01842 0.0082 0.409
-0.019086 0.0082 0.409
-0.019753 0.0082 0.409
-0.020419 0.0082 0.409
-0.021034 0.00818 0.408
-0.021699 0.00818 0.408
-0.022364 0.00818 0.408
-0.023029 0.00818 0.408
-0.023694 0.00818 0.408
-0.024359 0.00818 0.408
-0.025024 0.00818 0.408
-0.025689 0.00818 0.408
-0.026354 0.00818 0.408
-0.027019 0.00818 0.408
-0.027683 0.00818 0.408
-0.028348 0.00818 0.408
-0.029013 0.00818 0.408
-0.029678 0.00818 0.408
-0.030417 0.0082 0.409
-0.031084 0.0082 0.409
-0.031751 0.0082 0.409
-0.032417 0.0082 0.409
-0.033084 0.0082 0.409
-0.03375 0.0082 0.409
-0.034417 0.0082 0.409
-0.035083 0.0082 0.409
-0.035837 0.00822 0.41
-0.036505 0.00822 0.41
-0.037174 0.00822 0.41
-0.037842 0.00822 0.41
-0.03851 0.00822 0.41
-0.039274 0.00824 0.411
-0.039944 0.00824 0.411
-0.040613 0.00824 0.411
-0.041283 0.00824 0.411
-0.041953 0.00824 0.411
-0.042623 0.00824 0.411
-0.043503 0.00828 0.413
-0.044176 0.00828 0.413
-0.045175 0.008341 0.416
-0.045853 0.008341 0.416
-0.046755 0.008381 0.418
-0.048808 0.008501 0.424
-0.049499 0.008501 0.424
-0.05019 0.008501 0.424
-0.051241 0.008561 0.427
-0.052302 0.008621 0.43
-0.053003 0.008621 0.43
-0.053953 0.008661 0.432
-0.054657 0.008661 0.432
-0.055489 0.008681 0.433
-0.056195 0.008681 0.433
-0.056901 0.008681 0.433
-0.057739 0.008702 0.434
-0.058447 0.008702 0.434
-0.059154 0.008702 0.434
-0.059861 0.008702 0.434
-0.060569 0.008702 0.434
-0.061276 0.008702 0.434
-0.062126 0.008722 0.435
-0.062835 0.008722 0.435
-0.063544 0.008722 0.435
-0.064253 0.008722 0.435
-0.064962 0.008722 0.435
-0.065822 0.008742 0.436
-0.066532 0.008742 0.436
-0.067243 0.008742 0.436
-0.068109 0.008762 0.437
-0.068821 0.008762 0.437
-0.069693 0.008782 0.438
-0.070406 0.008782 0.438
-0.071283 0.008802 0.439
-0.072162 0.008822 0.44
-0.072879 0.008822 0.44
-0.073763 0.008842 0.441
-0.074482 0.008842 0.441
0.017032 0.007589 0.412
0.01636 0.007589 0.412
0.015651 0.007571 0.411
0.014981 0.007571 0.411
0.014311 0.007571 0.411
0.013741 0.007626 0.414
0.013098 0.007644 0.415
0.012421 0.007644 0.415
0.011745 0.007644 0.415
0.011095 0.007663 0.416
0.010392 0.007644 0.415
0.009716 0.007644 0.415
0.009018 0.007626 0.414
0.008323 0.007608 0.413
0.00765 0.007608 0.413
0.006977 0.007608 0.413
0.006304 0.007608 0.413
0.005631 0.007608 0.413
0.004946 0.007589 0.412
0.004274 0.007589 0.412
0.003603 0.007589 0.412
0.002924 0.007571 0.411
0.002255 0.007571 0.411
0.001585 0.007571 0.411
0.000915 0.007571 0.411
0.000245 0.007571 0.411
-0.000425 0.007571 0.411
-0.001095 0.007571 0.411
-0.001764 0.007571 0.411
-0.002434 0.007571 0.411
-0.003096 0.007552 0.41
-0.003765 0.007552 0.41
-0.004433 0.007552 0.41
-0.005101 0.007552 0.41
-0.005769 0.007552 0.41
-0.006437 0.007552 0.41
-0.007106 0.007552 0.41
-0.007774 0.007552 0.41
-0.008442 0.007552 0.41
-0.00911 0.007552 0.41
-0.009778 0.007552 0.41
-0.010446 0.007552 0.41
-0.011115 0.007552 0.41
-0.011783 0.007552 0.41
-0.012451 0.007552 0.41
-0.013087 0.007534 0.409
-0.013754 0.007534 0.409
-0.01442 0.007534 0.409
-0.015087 0.007534 0.409
-0.015753 0.007534 0.409
-0.01642 0.007534 0.409
-0.017086 0.007534 0.409
-0.017753 0.007534 0.409
-0.01842 0.007534 0.409
-0.019086 0.007534 0.409
-0.019753 0.007534 0.409
-0.020369 0.007515 0.408
-0.021034 0.007515 0.408
-0.021699 0.007515 0.408
-0.022364 0.007515 0.408
-0.023029 0.007515 0.408
-0.023694 0.007515 0.408
-0.024359 0.007515 0.408
-0.025024 0.007515 0.408
-0.025689 0.007515 0.408
-0.026354 0.007515 0.408
-0.027019 0.007515 0.408
-0.027683 0.007515 0.408
-0.028348 0.007515 0.408
-0.029013 0.007515 0.408
-0.029678 0.007515 0.408
-0.030343 0.007515 0.408
-0.031008 0.007515 0.408
-0.031673 0.007515 0.408
-0.032417 0.007534 0.409
-0.033084 0.007534 0.409
-0.03375 0.007534 0.409
-0.034417 0.007534 0.409
-0.035083 0.007534 0.409
-0.035837 0.007552 0.41
-0.036505 0.007552 0.41
-0.037174 0.007552 0.41
-0.037842 0.007552 0.41
-0.03851 0.007552 0.41
-0.039274 0.007571 0.411
-0.039944 0.007571 0.411
-0.040613 0.007571 0.411
-0.041283 0.007571 0.411
-0.041953 0.007571 0.411
-0.042623 0.007571 0.411
-0.043503 0.007608 0.413
-0.044176 0.007608 0.413
-0.045175 0.007663 0.416
-0.045853 0.007663 0.416
-0.046755 0.0077 0.418
-0.050545 0.007865 0.427
-0.051241 0.007865 0.427
-0.052302 0.007921 0.43
-0.053003 0.007921 0.43
-0.053953 0.007958 0.432
-0.054657 0.007958 0.432
-0.055489 0.007976 0.433
-0.056195 0.007976 0.433
-0.056901 0.007976 0.433
-0.057739 0.007994 0.434
-0.058447 0.007994 0.434
-0.059154 0.007994 0.434
-0.059861 0.007994 0.434
-0.060569 0.007994 0.434
-0.061417 0.008013 0.435
-0.062126 0.008013 0.435
-0.062835 0.008013 0.435
-0.063544 0.008013 0.435
-0.064253 0.008013 0.435
-0.065111 0.008031 0.436
-0.065822 0.008031 0.436
-0.066532 0.008031 0.436
-0.067397 0.00805 0.437
-0.068265 0.008068 0.438
-0.068979 0.008068 0.438
-0.069693 0.008068 0.438
-0.070406 0.008068 0.438
-0.071283 0.008086 0.439
-0.072162 0.008105 0.44
-0.072879 0.008105 0.44
-0.073763 0.008123 0.441
-0.074482 0.008123 0.441
-0.075201 0.008123 0.441
0.017746 0.006935 0.413
0.017032 0.006918 0.412
0.01636 0.006918 0.412
0.015689 0.006918 0.412
0.015163 0.006985 0.416
0.014485 0.006985 0.416
0.013807 0.006985 0.416
0.013192 0.007019 0.418
0.012511 0.007019 0.418
0.01183 0.007019 0.418
0.011149 0.007019 0.418
0.010468 0.007019 0.418
0.009786 0.007019 0.418
0.009083 0.007002 0.417
0.008384 0.006985 0.416
0.007706 0.006985 0.416
0.007028 0.006985 0.416
0.00635 0.006985 0.416
0.005672 0.006985 0.416
0.00497 0.006951 0.414
0.004295 0.006951 0.414
0.00362 0.006951 0.414
0.002939 0.006935 0.413
0.002265 0.006935 0.413
0.001592 0.006935 0.413
0.000917 0.006918 0.412
0.000246 0.006918 0.412
-0.000426 0.006918 0.412
-0.001097 0.006918 0.412
-0.001769 0.006918 0.412
-0.002434 0.006901 0.411
-0.003104 0.006901 0.411
-0.003774 0.006901 0.411
-0.004433 0.006884 0.41
-0.005101 0.006884 0.41
-0.005769 0.006884 0.41
-0.006437 0.006884 0.41
-0.007106 0.006884 0.41
-0.007774 0.006884 0.41
-0.008442 0.006884 0.41
-0.00911 0.006884 0.41
-0.009778 0.006884 0.41
-0.010446 0.006884 0.41
-0.011115 0.006884 0.41
-0.011783 0.006884 0.41
-0.012451 0.006884 0.41
-0.013087 0.006867 0.409
-0.013754 0.006867 0.409
-0.01442 0.006867 0.409
-0.015087 0.006867 0.409
-0.015753 0.006867 0.409
-0.01642 0.006867 0.409
-0.017086 0.006867 0.409
-0.017753 0.006867 0.409
-0.01842 0.006867 0.409
-0.019086 0.006867 0.409
-0.019753 0.006867 0.409
-0.020369 0.006851 0.408
-0.021034 0.006851 0.408
-0.021699 0.006851 0.408
-0.022364 0.006851 0.408
-0.023029 0.006851 0.408
-0.023694 0.006851 0.408
-0.024359 0.006851 0.408
-0.025024 0.006851 0.408
-0.025689 0.006851 0.408
-0.026354 0.006851 0.408
-0.027019 0.006851 0.408
-0.027683 0.006851 0.408
-0.028348 0.006851 0.408
-0.029013 0.006851 0.408
-0.029678 0.006851 0.408
-0.030343 0.006851 0.408
-0.031008 0.006851 0.408
-0.031673 0.006851 0.408
-0.032417 0.006867 0.409
-0.033084 0.006867 0.409
-0.03375 0.006867 0.409
-0.034417 0.006867 0.409
-0.035083 0.006867 0.409
-0.03575 0.006867 0.409
-0.036505 0.006884 0.41
-0.037174 0.006884 0.41
-0.037842 0.006884 0.41
-0.03851 0.006884 0.41
-0.039178 0.006884 0.41
-0.039944 0.006901 0.411
-0.040613 0.006901 0.411
-0.041283 0.006901 0.411
-0.041953 0.006901 0.411
-0.042623 0.006901 0.411
-0.043503 0.006935 0.413
-0.044176 0.006935 0.413
-0.045067 0.006968 0.415
-0.045853 0.006985 0.416
-0.046755 0.007019 0.418
-0.050427 0.007153 0.426
-0.051121 0.007153 0.426
-0.05218 0.007203 0.429
-0.052879 0.007203 0.429
-0.053828 0.007237 0.431
-0.054531 0.007237 0.431
-0.055489 0.00727 0.433
-0.056195 0.00727 0.433
-0.056901 0.00727 0.433
-0.057739 0.007287 0.434
-0.058447 0.007287 0.434
-0.059154 0.007287 0.434
-0.059861 0.007287 0.434
-0.060569 0.007287 0.434
-0.061417 0.007304 0.435
-0.062126 0.007304 0.435
-0.062835 0.007304 0.435
-0.063544 0.007304 0.435
-0.064253 0.007304 0.435
-0.065111 0.007321 0.436
-0.065822 0.007321 0.436
-0.066532 0.007321 0.436
-0.067397 0.007338 0.437
-0.068265 0.007354 0.438
-0.068979 0.007354 0.438
-0.069693 0.007354 0.438
-0.070406 0.007354 0.438
-0.071283 0.007371 0.439
-0.072162 0.007388 0.44
-0.072879 0.007388 0.44
-0.073596 0.007388 0.44
-0.074482 0.007405 0.441
-0.075201 0.007405 0.441
-0.075919 0.007405 0.441
-0.076638 0.007405 0.441
0.017746 0.006262 0.413
0.017073 0.006262 0.413
0.016519 0.006307 0.416
0.015841 0.006307 0.416
0.015273 0.006353 0.419
0.01459 0.006353 0.419
0.01394 0.006368 0.42
0.013256 0.006368 0.42
0.012601 0.006383 0.421
0.011915 0.006383 0.421
0.011229 0.006383 0.421
0.010543 0.006383 0.421
0.009857 0.006383 0.421
0.009149 0.006368 0.42
0.008444 0.006353 0.419
0.007761 0.006353 0.419
0.007061 0.006338 0.418
0.00635 0.006307 0.416
0.005672 0.006307 0.416
0.00497 0.006277 0.414
0.004295 0.006277 0.414
0.00362 0.006277 0.414
0.002939 0.006262 0.413
0.002265 0.006262 0.413
0.001592 0.006262 0.413
0.000917 0.006247 0.412
0.000246 0.006247 0.412
-0.000426 0.006247 0.412
-0.001097 0.006247 0.412
-0.001769 0.006247 0.412
-0.002434 0.006231 0.411
-0.003104 0.006231 0.411
-0.003774 0.006231 0.411
-0.004433 0.006216 0.41
-0.005101 0.006216 0.41
-0.005769 0.006216 0.41
-0.006437 0.006216 0.41
-0.007106 0.006216 0.41
-0.007774 0.006216 0.41
-0.008442 0.006216 0.41
-0.00911 0.006216 0.41
-0.009778 0.006216 0.41
-0.010421 0.006201 0.409
-0.011088 0.006201 0.409
-0.011754 0.006201 0.409
-0.012421 0.006201 0.409
-0.013087 0.006201 0.409
-0.013754 0.006201 0.409
-0.01442 0.006201 0.409
-0.015087 0.006201 0.409
-0.015753 0.006201 0.409
-0.01642 0.006201 0.409
-0.017045 0.006186 0.408
-0.01771 0.006186 0.408
-0.018375 0.006186 0.408
-0.019039 0.006186 0.408
-0.019704 0.006186 0.408
-0.020369 0.006186 0.408
-0.021034 0.006186 0.408
-0.021699 0.006186 0.408
-0.022364 0.006186 0.408
-0.023029 0.006186 0.408
-0.023694 0.006186 0.408
-0.024299 0.006171 0.407
-0.024962 0.006171 0.407
-0.025626 0.006171 0.407
-0.026289 0.006171 0.407
-0.026952 0.006171 0.407
-0.027616 0.006171 0.407
-0.028348 0.006186 0.408
-0.029013 0.006186 0.408
-0.029678 0.006186 0.408
-0.030343 0.006186 0.408
-0.031008 0.006186 0.408
-0.031673 0.006186 0.408
-0.032338 0.006186 0.408
-0.033003 0.006186 0.408
-0.03375 0.006201 0.409
-0.034417 0.006201 0.409
-0.035083 0.006201 0.409
-0.03575 0.006201 0.409
-0.036505 0.006216 0.41
-0.037174 0.006216 0.41
-0.037842 0.006216 0.41
-0.03851 0.006216 0.41
-0.039178 0.006216 0.41
-0.039944 0.006231 0.411
-0.040613 0.006231 0.411
-0.041283 0.006231 0.411
-0.041953 0.006231 0.411
-0.042623 0.006231 0.411
-0.043398 0.006247 0.412
-0.044069 0.006247 0.412
-0.044958 0.006277 0.414
-0.045963 0.006322 0.417
-0.046643 0.006322 0.417
-0.047663 0.006368 0.42
-0.048348 0.006368 0.42
-0.050427 0.006459 0.426
-0.051121 0.006459 0.426
-0.05218 0.006504 0.429
-0.052879 0.006504 0.429
-0.053828 0.006535 0.431
-0.054531 0.006535 0.431
-0.055489 0.006565 0.433
-0.056195 0.006565 0.433
-0.056901 0.006565 0.433
-0.057739 0.00658 0.434
-0.058447 0.00658 0.434
-0.059154 0.00658 0.434
-0.059999 0.006595 0.435
-0.060708 0.006595 0.435
-0.061417 0.006595 0.435
-0.062126 0.006595 0.435
-0.062835 0.006595 0.435
-0.063544 0.006595 0.435
-0.064253 0.006595 0.435
-0.065111 0.00661 0.436
-0.065972 0.006626 0.437
-0.066685 0.006626 0.437
-0.067397 0.006626 0.437
-0.068265 0.006641 0.438
-0.068979 0.006641 0.438
-0.069852 0.006656 0.439
-0.070567 0.006656 0.439
-0.071283 0.006656 0.439
-0.072162 0.006671 0.44
-0.072879 0.006671 0.44
-0.073596 0.006671 0.44
-0.074482 0.006686 0.441
-0.075201 0.006686 0.441
-0.075919 0.006686 0.441
-0.076638 0.006686 0.441
0.019909 0.005629 0.416
0.019231 0.005629 0.416
0.018687 0.00567 0.419
0.017746 0.005589 0.413
0.017073 0.005589 0.413
0.016519 0.005629 0.416
0.015841 0.005629 0.416
0.015273 0.00567 0.419
0.01459 0.00567 0.419
0.01394 0.005684 0.42
0.013256 0.005684 0.42
0.012601 0.005697 0.421
0.011915 0.005697 0.421
0.011229 0.005697 0.421
0.010543 0.005697 0.421
0.009857 0.005697 0.421
0.009149 0.005684 0.42
0.008444 0.00567 0.419
0.007761 0.00567 0.419
0.007061 0.005657 0.418
0.00638 0.005657 0.418
0.005699 0.005657 0.418
0.005006 0.005643 0.417
0.004326 0.005643 0.417
0.003638 0.005629 0.416
0.002953 0.005616 0.415
0.002276 0.005616 0.415
0.001596 0.005602 0.414
0.000922 0.005602 0.414
0.000247 0.005602 0.414
-0.000427 0.005589 0.413
-0.001097 0.005575 0.412
-0.001769 0.005575 0.412
-0.00244 0.005575 0.412
-0.003104 0.005562 0.411
-0.003774 0.005562 0.411
-0.004444 0.005562 0.411
-0.005113 0.005562 0.411
-0.005769 0.005548 0.41
-0.006437 0.005548 0.41
-0.007106 0.005548 0.41
-0.007774 0.005548 0.41
-0.008442 0.005548 0.41
-0.00911 0.005548 0.41
-0.009754 0.005535 0.409
-0.010421 0.005535 0.409
-0.011088 0.005535 0.409
-0.011754 0.005535 0.409
-0.012421 0.005535 0.409
-0.013087 0.005535 0.409
-0.013754 0.005535 0.409
-0.01442 0.005535 0.409
-0.015087 0.005535 0.409
-0.015715 0.005521 0.408
-0.01638 0.005521 0.408
-0.017045 0.005521 0.408
-0.01771 0.005521 0.408
-0.018375 0.005521 0.408
-0.019039 0.005521 0.408
-0.019704 0.005521 0.408
-0.020369 0.005521 0.408
-0.021034 0.005521 0.408
-0.021699 0.005521 0.408
-0.022364 0.005521 0.408
-0.023029 0.005521 0.408
-0.023694 0.005521 0.408
-0.024299 0.005508 0.407
-0.024962 0.005508 0.407
-0.025626 0.005508 0.407
-0.026289 0.005508 0.407
-0.026952 0.005508 0.407
-0.027616 0.005508 0.407
-0.028348 0.005521 0.408
-0.029013 0.005521 0.408
-0.029678 0.005521 0.408
-0.030343 0.005521 0.408
-0.031008 0.005521 0.408
-0.031673 0.005521 0.408
-0.032338 0.005521 0.408
-0.033003 0.005521 0.408
-0.03375 0.005535 0.409
-0.034417 0.005535 0.409
-0.035083 0.005535 0.409
-0.03575 0.005535 0.409
-0.036505 0.005548 0.41
-0.037174 0.005548 0.41
-0.037842 0.005548 0.41
-0.03851 0.005548 0.41
-0.039178 0.005548 0.41
-0.039944 0.005562 0.411
-0.040613 0.005562 0.411
-0.041283 0.005562 0.411
-0.042055 0.005575 0.412
-0.042727 0.005575 0.412
-0.043398 0.005575 0.412
-0.044069 0.005575 0.412
-0.044958 0.005602 0.414
-0.045963 0.005643 0.417
-0.046643 0.005643 0.417
-0.047663 0.005684 0.42
-0.048348 0.005684 0.42
-0.050427 0.005765 0.426
-0.051121 0.005765 0.426
-0.05218 0.005805 0.429
-0.052879 0.005805 0.429
-0.053828 0.005832 0.431
-0.054531 0.005832 0.431
-0.055489 0.005859 0.433
-0.056195 0.005859 0.433
-0.056901 0.005859 0.433
-0.057739 0.005873 0.434
-0.058447 0.005873 0.434
-0.059154 0.005873 0.434
-0.059999 0.005887 0.435
-0.060708 0.005887 0.435
-0.061417 0.005887 0.435
-0.062126 0.005887 0.435
-0.062835 0.005887 0.435
-0.063544 0.005887 0.435
-0.064253 0.005887 0.435
-0.065111 0.0059 0.436
-0.065972 0.005914 0.437
-0.066685 0.005914 0.437
-0.067397 0.005914 0.437
-0.068265 0.005927 0.438
-0.068979 0.005927 0.438
-0.069852 0.005941 0.439
-0.070567 0.005941 0.439
-0.071283 0.005941 0.439
-0.072162 0.005954 0.44
-0.072879 0.005954 0.44
-0.073596 0.005954 0.44
-0.074482 0.005968 0.441
-0.075201 0.005968 0.441
-0.075919 0.005968 0.441
-0.076638 0.005968 0.441
-0.077357 0.005968 0.441
0.021418 0.004987 0.419
0.020735 0.004987 0.419
0.019909 0.004952 0.416
0.019231 0.004952 0.416
0.018687 0.004987 0.419
0.018004 0.004987 0.419
0.01607 0.005023 0.422
0.015382 0.005023 0.422
0.014694 0.005023 0.422
0.01404 0.005035 0.423
0.01335 0.005035 0.423
0.012661 0.005035 0.423
0.011971 0.005035 0.423
0.011282 0.005035 0.423
0.010593 0.005035 0.423
0.009903 0.005035 0.423
0.009192 0.005023 0.422
0.008504 0.005023 0.422
0.007798 0.005011 0.421
0.007112 0.005011 0.421
0.006426 0.005011 0.421
0.005726 0.004999 0.42
0.00503 0.004987 0.419
0.004347 0.004987 0.419
0.003655 0.004975 0.418
0.002967 0.004964 0.417
0.002287 0.004964 0.417
0.001604 0.004952 0.416
0.000924 0.00494 0.415
0.000247 0.00494 0.415
-0.000428 0.004928 0.414
-0.0011 0.004916 0.413
-0.001773 0.004916 0.413
-0.00244 0.004904 0.412
-0.003104 0.004892 0.411
-0.003774 0.004892 0.411
-0.004444 0.004892 0.411
-0.005113 0.004892 0.411
-0.005783 0.004892 0.411
-0.006437 0.00488 0.41
-0.007106 0.00488 0.41
-0.007774 0.00488 0.41
-0.008442 0.00488 0.41
-0.00911 0.00488 0.41
-0.009754 0.004868 0.409
-0.010421 0.004868 0.409
-0.011088 0.004868 0.409
-0.011754 0.004868 0.409
-0.012421 0.004868 0.409
-0.013087 0.004868 0.409
-0.013754 0.004868 0.409
-0.01442 0.004868 0.409
-0.015087 0.004868 0.409
-0.015715 0.004856 0.408
-0.01638 0.004856 0.408
-0.017045 0.004856 0.408
-0.01771 0.004856 0.408
-0.018375 0.004856 0.408
-0.019039 0.004856 0.408
-0.019704 0.004856 0.408
-0.020369 0.004856 0.408
-0.021034 0.004856 0.408
-0.021699 0.004856 0.408
-0.022309 0.004845 0.407
-0.022973 0.004845 0.407
-0.023636 0.004845 0.407
-0.024299 0.004845 0.407
-0.024962 0.004845 0.407
-0.025626 0.004845 0.407
-0.026289 0.004845 0.407
-0.026952 0.004845 0.407
-0.027616 0.004845 0.407
-0.028279 0.004845 0.407
-0.028942 0.004845 0.407
-0.029605 0.004845 0.407
-0.030343 0.004856 0.408
-0.031008 0.004856 0.408
-0.031673 0.004856 0.408
-0.032338 0.004856 0.408
-0.033003 0.004856 0.408
-0.033668 0.004856 0.408
-0.034417 0.004868 0.409
-0.035083 0.004868 0.409
-0.03575 0.004868 0.409
-0.036416 0.004868 0.409
-0.037083 0.004868 0.409
-0.037842 0.00488 0.41
-0.03851 0.00488 0.41
-0.039178 0.00488 0.41
-0.039944 0.004892 0.411
-0.040613 0.004892 0.411
-0.041283 0.004892 0.411
-0.042055 0.004904 0.412
-0.042727 0.004904 0.412
-0.043398 0.004904 0.412
-0.044069 0.004904 0.412
-0.044958 0.004928 0.414
-0.045963 0.004964 0.417
-0.046643 0.004964 0.417
-0.047663 0.004999 0.42
-0.048348 0.004999 0.42
-0.050308 0.005059 0.425
-0.051001 0.005059 0.425
-0.052058 0.005094 0.428
-0.052756 0.005094 0.428
-0.053828 0.00513 0.431
-0.054531 0.00513 0.431
-0.055489 0.005154 0.433
-0.056195 0.005154 0.433
-0.056901 0.005154 0.433
-0.057739 0.005166 0.434
-0.058447 0.005166 0.434
-0.059154 0.005166 0.434
-0.059999 0.005178 0.435
-0.060708 0.005178 0.435
-0.061417 0.005178 0.435
-0.062126 0.005178 0.435
-0.062835 0.005178 0.435
-0.063544 0.005178 0.435
-0.064253 0.005178 0.435
-0.065111 0.00519 0.436
-0.065972 0.005202 0.437
-0.066685 0.005202 0.437
-0.067397 0.005202 0.437
-0.068265 0.005214 0.438
-0.068979 0.005214 0.438
-0.069852 0.005225 0.439
-0.070567 0.005225 0.439
-0.071283 0.005225 0.439
-0.072162 0.005237 0.44
-0.072879 0.005237 0.44
-0.073596 0.005237 0.44
-0.074482 0.005249 0.441
-0.075201 0.005249 0.441
-0.075919 0.005249 0.441
-0.076638 0.005249 0.441
-0.077357 0.005249 0.441
0.021418 0.004305 0.419
0.020735 0.004305 0.419
0.020052 0.004305 0.419
0.019416 0.004315 0.42
0.018731 0.004315 0.42
0.01607 0.004335 0.422
0.015382 0.004335 0.422
0.014694 0.004335 0.422
0.01404 0.004346 0.423
0.01335 0.004346 0.423
0.012661 0.004346 0.423
0.011971 0.004346 0.423
0.011282 0.004346 0.423
0.010593 0.004346 0.423
0.009903 0.004346 0.423
0.009192 0.004335 0.422
0.008504 0.004335 0.422
0.007798 0.004325 0.421
0.007112 0.004325 0.421
0.006426 0.004325 0.421
0.005726 0.004315 0.42
0.00503 0.004305 0.419
0.004347 0.004305 0.419
0.003655 0.004294 0.418
0.002967 0.004284 0.417
0.002287 0.004284 0.417
0.001604 0.004274 0.416
0.000924 0.004264 0.415
0.000247 0.004264 0.415
-0.000428 0.004253 0.414
-0.0011 0.004243 0.413
-0.001773 0.004243 0.413
-0.00244 0.004233 0.412
-0.003104 0.004222 0.411
-0.003774 0.004222 0.411
-0.004444 0.004222 0.411
-0.005113 0.004222 0.411
-0.005783 0.004222 0.411
-0.006437 0.004212 0.41
-0.007106 0.004212 0.41
-0.007774 0.004212 0.41
-0.008442 0.004212 0.41
-0.00911 0.004212 0.41
-0.009754 0.004202 0.409
-0.010421 0.004202 0.409
-0.011088 0.004202 0.409
-0.011754 0.004202 0.409
-0.012421 0.004202 0.409
-0.013087 0.004202 0.409
-0.013754 0.004202 0.409
-0.01442 0.004202 0.409
-0.01505 0.004192 0.408
-0.015715 0.004192 0.408
-0.01638 0.004192 0.408
-0.017045 0.004192 0.408
-0.01771 0.004192 0.408
-0.018375 0.004192 0.408
-0.019039 0.004192 0.408
-0.019704 0.004192 0.408
-0.020369 0.004192 0.408
-0.020983 0.004181 0.407
-0.021646 0.004181 0.407
-0.022309 0.004181 0.407
-0.022973 0.004181 0.407
-0.023636 0.004181 0.407
-0.024299 0.004181 0.407
-0.024962 0.004181 0.407
-0.025626 0.004181 0.407
-0.026289 0.004181 0.407
-0.026952 0.004181 0.407
-0.027616 0.004181 0.407
-0.028279 0.004181 0.407
-0.028942 0.004181 0.407
-0.029605 0.004181 0.407
-0.030269 0.004181 0.407
-0.031008 0.004192 0.408
-0.031673 0.004192 0.408
-0.032338 0.004192 0.408
-0.033003 0.004192 0.408
-0.033668 0.004192 0.408
-0.034333 0.004192 0.408
-0.034998 0.004192 0.408
-0.03575 0.004202 0.409
-0.036416 0.004202 0.409
-0.037083 0.004202 0.409
-0.037842 0.004212 0.41
-0.03851 0.004212 0.41
-0.039178 0.004212 0.41
-0.039944 0.004222 0.411
-0.040613 0.004222 0.411
-0.041283 0.004222 0.411
-0.041953 0.004222 0.411
-0.042623 0.004222 0.411
-0.043398 0.004233 0.412
-0.044069 0.004233 0.412
-0.044958 0.004253 0.414
-0.045853 0.004274 0.416
-0.046531 0.004274 0.416
-0.047663 0.004315 0.42
-0.048348 0.004315 0.42
-0.050308 0.004366 0.425
-0.051001 0.004366 0.425
-0.052058 0.004397 0.428
-0.052756 0.004397 0.428
-0.053828 0.004428 0.431
-0.054531 0.004428 0.431
-0.055489 0.004449 0.433
-0.056195 0.004449 0.433
-0.056901 0.004449 0.433
-0.057739 0.004459 0.434
-0.058447 0.004459 0.434
-0.059154 0.004459 0.434
-0.059999 0.004469 0.435
-0.060708 0.004469 0.435
-0.061417 0.004469 0.435
-0.062126 0.004469 0.435
-0.062835 0.004469 0.435
-0.06369 0.004479 0.436
-0.0644 0.004479 0.436
-0.06526 0.00449 0.437
-0.065972 0.00449 0.437
-0.066685 0.00449 0.437
-0.067551 0.0045 0.438
-0.068421 0.00451 0.439
-0.069136 0.00451 0.439
-0.069852 0.00451 0.439
-0.070567 0.00451 0.439
-0.071445 0.00452 0.44
-0.072162 0.00452 0.44
-0.072879 0.00452 0.44
-0.073596 0.00452 0.44
-0.074482 0.004531 0.441
-0.075201 0.004531 0.441
-0.075919 0.004531 0.441
-0.076638 0.004531 0.441
-0.077357 0.004531 0.441
0.021418 0.003622 0.419
0.020735 0.003622 0.419
0.020052 0.003622 0.419
0.019416 0.003631 0.42
0.018731 0.003631 0.42
0.014764 0.003665 0.424
0.014073 0.003665 0.424
0.013382 0.003665 0.424
0.012691 0.003665 0.424
0.012 0.003665 0.424
0.011309 0.003665 0.424
0.010618 0.003665 0.424
0.009927 0.003665 0.424
0.009214 0.003657 0.423
0.008525 0.003657 0.423
0.007817 0.003648 0.422
0.007129 0.003648 0.422
0.006441 0.003648 0.422
0.00574 0.003639 0.421
0.005042 0.003631 0.42
0.004357 0.003631 0.42
0.003664 0.003622 0.419
0.002974 0.003613 0.418
0.002293 0.003613 0.418
0.001604 0.003596 0.416
0.000926 0.003596 0.416
0.000248 0.003596 0.416
-0.000429 0.003587 0.415
-0.001103 0.003579 0.414
-0.001777 0.003579 0.414
-0.002446 0.00357 0.413
-0.003112 0.003561 0.412
-0.003783 0.003561 0.412
-0.004444 0.003553 0.411
-0.005113 0.003553 0.411
-0.005783 0.003553 0.411
-0.006437 0.003544 0.41
-0.007106 0.003544 0.41
-0.007774 0.003544 0.41
-0.008442 0.003544 0.41
-0.00911 0.003544 0.41
-0.009754 0.003536 0.409
-0.010421 0.003536 0.409
-0.011088 0.003536 0.409
-0.011754 0.003536 0.409
-0.012421 0.003536 0.409
-0.013087 0.003536 0.409
-0.013754 0.003536 0.409
-0.01442 0.003536 0.409
-0.01505 0.003527 0.408
-0.015715 0.003527 0.408
-0.01638 0.003527 0.408
-0.017045 0.003527 0.408
-0.01771 0.003527 0.408
-0.018375 0.003527 0.408
-0.019039 0.003527 0.408
-0.019704 0.003527 0.408
-0.020369 0.003527 0.408
-0.020983 0.003518 0.407
-0.021646 0.003518 0.407
-0.022309 0.003518 0.407
-0.022973 0.003518 0.407
-0.023636 0.003518 0.407
-0.024299 0.003518 0.407
-0.024962 0.003518 0.407
-0.025626 0.003518 0.407
-0.026289 0.003518 0.407
-0.026952 0.003518 0.407
-0.027616 0.003518 0.407
-0.028279 0.003518 0.407
-0.028942 0.003518 0.407
-0.029605 0.003518 0.407
-0.030269 0.003518 0.407
-0.031008 0.003527 0.408
-0.031673 0.003527 0.408
-0.032338 0.003527 0.408
-0.033003 0.003527 0.408
-0.033668 0.003527 0.408
-0.034333 0.003527 0.408
-0.034998 0.003527 0.408
-0.03575 0.003536 0.409
-0.036416 0.003536 0.409
-0.037083 0.003536 0.409
-0.037842 0.003544 0.41
-0.03851 0.003544 0.41
-0.039178 0.003544 0.41
-0.039944 0.003553 0.411
-0.040613 0.003553 0.411
-0.041283 0.003553 0.411
-0.041953 0.003553 0.411
-0.042623 0.003553 0.411
-0.043398 0.003561 0.412
-0.044069 0.003561 0.412
-0.044958 0.003579 0.414
-0.045853 0.003596 0.416
-0.046531 0.003596 0.416
-0.04755 0.003622 0.419
-0.048232 0.003622 0.419
-0.050308 0.003674 0.425
-0.051001 0.003674 0.425
-0.052058 0.0037 0.428
-0.052756 0.0037 0.428
-0.053828 0.003726 0.431
-0.054531 0.003726 0.431
-0.055489 0.003743 0.433
-0.056195 0.003743 0.433
-0.056901 0.003743 0.433
-0.057739 0.003752 0.434
-0.058447 0.003752 0.434
-0.059154 0.003752 0.434
-0.059999 0.00376 0.435
-0.060708 0.00376 0.435
-0.061417 0.00376 0.435
-0.062126 0.00376 0.435
-0.062835 0.00376 0.435
-0.06369 0.003769 0.436
-0.0644 0.003769 0.436
-0.06526 0.003778 0.437
-0.065972 0.003778 0.437
-0.066685 0.003778 0.437
-0.067551 0.003786 0.438
-0.068421 0.003795 0.439
-0.069136 0.003795 0.439
-0.069852 0.003795 0.439
-0.070567 0.003795 0.439
-0.071445 0.003804 0.44
-0.072162 0.003804 0.44
-0.072879 0.003804 0.44
-0.073596 0.003804 0.44
-0.074482 0.003812 0.441
-0.075201 0.003812 0.441
-0.075919 0.003812 0.441
-0.076638 0.003812 0.441
-0.077357 0.003812 0.441
-0.078076 0.003812 0.441
-0.078794 0.003812 0.441
0.021469 0.002946 0.42
0.020785 0.002946 0.42
0.0201 0.002946 0.42
0.019416 0.002946 0.42
0.018731 0.002946 0.42
0.014764 0.002974 0.424
0.014073 0.002974 0.424
0.013382 0.002974 0.424
0.012691 0.002974 0.424
0.012 0.002974 0.424
0.011309 0.002974 0.424
0.010618 0.002974 0.424
0.009927 0.002974 0.424
0.009236 0.002974 0.424
0.008545 0.002974 0.424
0.007835 0.002967 0.423
0.007129 0.00296 0.422
0.006441 0.00296 0.422
0.005754 0.00296 0.422
0.005054 0.002953 0.421
0.004368 0.002953 0.421
0.003673 0.002946 0.42
0.002974 0.002932 0.418
0.002293 0.002932 0.418
0.001608 0.002925 0.417
0.000926 0.002918 0.416
0.000248 0.002918 0.416
-0.00043 0.002918 0.416
-0.001103 0.002904 0.414
-0.001777 0.002904 0.414
-0.002446 0.002897 0.413
-0.003112 0.00289 0.412
-0.003783 0.00289 0.412
-0.004454 0.00289 0.412
-0.005126 0.00289 0.412
-0.005783 0.002883 0.411
-0.006437 0.002876 0.41
-0.007106 0.002876 0.41
-0.007774 0.002876 0.41
-0.008442 0.002876 0.41
-0.00911 0.002876 0.41
-0.009754 0.002869 0.409
-0.010421 0.002869 0.409
-0.011088 0.002869 0.409
-0.011754 0.002869 0.409
-0.012421 0.002869 0.409
-0.013087 0.002869 0.409
-0.013754 0.002869 0.409
-0.01442 0.002869 0.409
-0.01505 0.002862 0.408
-0.015715 0.002862 0.408
-0.01638 0.002862 0.408
-0.017045 0.002862 0.408
-0.01771 0.002862 0.408
-0.018375 0.002862 0.408
-0.019039 0.002862 0.408
-0.019704 0.002862 0.408
-0.020319 0.002855 0.407
-0.020983 0.002855 0.407
-0.021646 0.002855 0.407
-0.022309 0.002855 0.407
-0.022973 0.002855 0.407
-0.023636 0.002855 0.407
-0.024299 0.002855 0.407
-0.024962 0.002855 0.407
-0.025626 0.002855 0.407
-0.026289 0.002855 0.407
-0.026952 0.002855 0.407
-0.027616 0.002855 0.407
-0.028279 0.002855 0.407
-0.028942 0.002855 0.407
-0.029605 0.002855 0.407
-0.030269 0.002855 0.407
-0.031008 0.002862 0.408
-0.031673 0.002862 0.408
-0.032338 0.002862 0.408
-0.033003 0.002862 0.408
-0.033668 0.002862 0.408
-0.034333 0.002862 0.408
-0.034998 0.002862 0.408
-0.03575 0.002869 0.409
-0.036416 0.002869 0.409
-0.037083 0.002869 0.409
-0.037842 0.002876 0.41
-0.03851 0.002876 0.41
-0.039178 0.002876 0.41
-0.039846 0.002876 0.41
-0.040515 0.002876 0.41
-0.041283 0.002883 0.411
-0.041953 0.002883 0.411
-0.042623 0.002883 0.411
-0.043398 0.00289 0.412
-0.044069 0.00289 0.412
-0.044958 0.002904 0.414
-0.045853 0.002918 0.416
-0.046531 0.002918 0.416
-0.04755 0.002939 0.419
-0.048232 0.002939 0.419
-0.050308 0.002981 0.425
-0.051001 0.002981 0.425
-0.051937 0.002995 0.427
-0.052633 0.002995 0.427
-0.053703 0.003016 0.43
-0.054404 0.003016 0.43
-0.055361 0.003031 0.432
-0.056195 0.003038 0.433
-0.056901 0.003038 0.433
-0.057739 0.003045 0.434
-0.058447 0.003045 0.434
-0.05929 0.003052 0.435
-0.059999 0.003052 0.435
-0.060708 0.003052 0.435
-0.061417 0.003052 0.435
-0.062269 0.003059 0.436
-0.062979 0.003059 0.436
-0.06369 0.003059 0.436
-0.0644 0.003059 0.436
-0.06526 0.003066 0.437
-0.066123 0.003073 0.438
-0.066837 0.003073 0.438
-0.067551 0.003073 0.438
-0.068421 0.00308 0.439
-0.069136 0.00308 0.439
-0.069852 0.00308 0.439
-0.070567 0.00308 0.439
-0.071445 0.003087 0.44
-0.072162 0.003087 0.44
-0.072879 0.003087 0.44
-0.073596 0.003087 0.44
-0.074482 0.003094 0.441
-0.075201 0.003094 0.441
-0.075919 0.003094 0.441
-0.076638 0.003094 0.441
-0.077357 0.003094 0.441
-0.078076 0.003094 0.441
-0.078794 0.003094 0.441
0.022206 0.002267 0.421
0.021469 0.002262 0.42
0.020785 0.002262 0.42
0.0201 0.002262 0.42
0.019416 0.002262 0.42
0.018731 0.002262 0.42
0.018176 0.002278 0.423
0.015455 0.002284 0.424
0.014764 0.002284 0.424
0.014073 0.002284 0.424
0.013382 0.002284 0.424
0.012691 0.002284 0.424
0.012 0.002284 0.424
0.011309 0.002284 0.424
0.010618 0.002284 0.424
0.009927 0.002284 0.424
0.009236 0.002284 0.424
0.008545 0.002284 0.424
0.007835 0.002278 0.423
0.007129 0.002273 0.422
0.006441 0.002273 0.422
0.005754 0.002273 0.422
0.005054 0.002267 0.421
0.004368 0.002267 0.421
0.003673 0.002262 0.42
0.002974 0.002251 0.418
0.002293 0.002251 0.418
0.001608 0.002246 0.417
0.000926 0.00224 0.416
0.000248 0.00224 0.416
-0.00043 0.00224 0.416
-0.001103 0.00223 0.414
