ply
format ascii 1.0
comment Created by Open3D
element vertex 2057
property double x
property double y
property double z
end_header
0.10892 0.056112 0.39
0.10884 0.0564 0.392
0.10875 0.056688 0.394
0.10811 0.056688 0.394
0.10774 0.056832 0.395
0.1071 0.056832 0.395
0.10672 0.056975 0.396
0.10634 0.057119 0.397
0.1057 0.057119 0.397
0.10532 0.057263 0.398
0.10467 0.057263 0.398
0.10428 0.057407 0.399
0.10389 0.057551 0.4
0.10324 0.057551 0.4
0.10284 0.057695 0.401
0.10219 0.057695 0.401
0.10179 0.057839 0.402
0.10138 0.057983 0.403
0.10073 0.057983 0.403
0.10032 0.058126 0.404
0.09966 0.058126 0.404
0.099001 0.058126 0.404
0.098586 0.05827 0.405
0.097926 0.05827 0.405
0.097506 0.058414 0.406
0.096845 0.058414 0.406
0.096183 0.058414 0.406
0.095757 0.058558 0.407
0.095093 0.058558 0.407
0.09443 0.058558 0.407
0.093767 0.058558 0.407
0.093104 0.058558 0.407
0.09244 0.058558 0.407
0.091777 0.058558 0.407
0.091114 0.058558 0.407
0.090673 0.058702 0.408
0.090008 0.058702 0.408
0.089343 0.058702 0.408
0.088678 0.058702 0.408
0.088013 0.058702 0.408
0.087348 0.058702 0.408
0.086683 0.058702 0.408
0.086018 0.058702 0.408
0.085562 0.058846 0.409
0.084896 0.058846 0.409
0.084229 0.058846 0.409
0.083767 0.05899 0.41
0.083099 0.05899 0.41
0.082632 0.059134 0.411
0.081962 0.059134 0.411
0.08149 0.059277 0.412
0.081015 0.059421 0.413
0.080342 0.059421 0.413
0.079861 0.059565 0.414
0.079187 0.059565 0.414
0.078702 0.059709 0.415
0.078213 0.059853 0.416
0.077535 0.059853 0.416
0.077042 0.059997 0.417
0.076363 0.059997 0.417
0.075683 0.059997 0.417
0.075183 0.060141 0.418
0.074502 0.060141 0.418
0.073821 0.060141 0.418
0.07314 0.060141 0.418
0.072458 0.060141 0.418
0.071777 0.060141 0.418
0.071096 0.060141 0.418
0.070415 0.060141 0.418
0.069734 0.060141 0.418
0.069052 0.060141 0.418
0.068371 0.060141 0.418
0.067852 0.060285 0.419
0.067169 0.060285 0.419
0.13637 0.05377 0.378
0.13539 0.053628 0.377
0.13478 0.053628 0.377
0.13416 0.053628 0.377
0.1332 0.053485 0.376
0.13258 0.053485 0.376
0.13197 0.053485 0.376
0.13101 0.053343 0.375
0.1304 0.053343 0.375
0.12944 0.053201 0.374
0.12883 0.053201 0.374
0.12822 0.053201 0.374
0.12761 0.053201 0.374
0.127 0.053201 0.374
0.12639 0.053201 0.374
0.12578 0.053201 0.374
0.12517 0.053201 0.374
0.12456 0.053201 0.374
0.12395 0.053201 0.374
0.12334 0.053201 0.374
0.12273 0.053201 0.374
0.12212 0.053201 0.374
0.12152 0.053201 0.374
0.12091 0.053201 0.374
0.1203 0.053201 0.374
0.11969 0.053201 0.374
0.1194 0.053343 0.375
0.11879 0.053343 0.375
0.11817 0.053343 0.375
0.11788 0.053485 0.376
0.11726 0.053485 0.376
0.11665 0.053485 0.376
0.11635 0.053628 0.377
0.11573 0.053628 0.377
0.11542 0.05377 0.378
0.11481 0.05377 0.378
0.11449 0.053912 0.379
0.11388 0.053912 0.379
0.11326 0.053912 0.379
0.11294 0.054054 0.38
0.11232 0.054054 0.38
0.11229 0.054339 0.382
0.11225 0.054623 0.384
0.11162 0.054623 0.384
0.11157 0.054908 0.386
0.11095 0.054908 0.386
0.11089 0.055192 0.388
0.11083 0.055477 0.39
0.11019 0.055477 0.39
0.11012 0.055761 0.392
0.10948 0.055761 0.392
0.10939 0.056046 0.394
0.10875 0.056046 0.394
0.10866 0.05633 0.396
0.10829 0.056472 0.397
0.10737 0.05633 0.396
0.10672 0.05633 0.396
0.10634 0.056472 0.397
0.1057 0.056472 0.397
0.10532 0.056615 0.398
0.10467 0.056615 0.398
0.10428 0.056757 0.399
0.10389 0.056899 0.4
0.10324 0.056899 0.4
0.10284 0.057041 0.401
0.10219 0.057041 0.401
0.10179 0.057184 0.402
0.10138 0.057326 0.403
0.10073 0.057326 0.403
0.10032 0.057468 0.404
0.09966 0.057468 0.404
0.099001 0.057468 0.404
0.098586 0.05761 0.405
0.097926 0.05761 0.405
0.097506 0.057753 0.406
0.096845 0.057753 0.406
0.096183 0.057753 0.406
0.095757 0.057895 0.407
0.095093 0.057895 0.407
0.09443 0.057895 0.407
0.093767 0.057895 0.407
0.093104 0.057895 0.407
0.09244 0.057895 0.407
0.091777 0.057895 0.407
0.091114 0.057895 0.407
0.090673 0.058037 0.408
0.090008 0.058037 0.408
0.089343 0.058037 0.408
0.088678 0.058037 0.408
0.088013 0.058037 0.408
0.087348 0.058037 0.408
0.086683 0.058037 0.408
0.086018 0.058037 0.408
0.085562 0.058179 0.409
0.084896 0.058179 0.409
0.084229 0.058179 0.409
0.083767 0.058322 0.41
0.083099 0.058322 0.41
0.082632 0.058464 0.411
0.081962 0.058464 0.411
0.08149 0.058606 0.412
0.081015 0.058748 0.413
0.080342 0.058748 0.413
0.079861 0.058891 0.414
0.079187 0.058891 0.414
0.078702 0.059033 0.415
0.078213 0.059175 0.416
0.077535 0.059175 0.416
0.076857 0.059175 0.416
0.076363 0.059317 0.417
0.075865 0.05946 0.418
0.075183 0.05946 0.418
0.074502 0.05946 0.418
0.073821 0.05946 0.418
0.07314 0.05946 0.418
0.072458 0.05946 0.418
0.071777 0.05946 0.418
0.071096 0.05946 0.418
0.070415 0.05946 0.418
0.069734 0.05946 0.418
0.069052 0.05946 0.418
0.068371 0.05946 0.418
0.067852 0.059602 0.419
0.067169 0.059602 0.419
0.13673 0.053295 0.379
0.13575 0.053154 0.378
0.13514 0.053154 0.378
0.13416 0.053013 0.377
0.13355 0.053013 0.377
0.13293 0.053013 0.377
0.13197 0.052873 0.376
0.13101 0.052732 0.375
0.1304 0.052732 0.375
0.12944 0.052591 0.374
0.12883 0.052591 0.374
0.12822 0.052591 0.374
0.12761 0.052591 0.374
0.127 0.052591 0.374
0.12639 0.052591 0.374
0.12578 0.052591 0.374
0.12517 0.052591 0.374
0.12456 0.052591 0.374
0.12395 0.052591 0.374
0.12334 0.052591 0.374
0.12273 0.052591 0.374
0.12212 0.052591 0.374
0.12152 0.052591 0.374
0.12091 0.052591 0.374
0.1203 0.052591 0.374
0.11969 0.052591 0.374
0.1194 0.052732 0.375
0.11879 0.052732 0.375
0.11817 0.052732 0.375
0.11788 0.052873 0.376
0.11726 0.052873 0.376
0.11665 0.052873 0.376
0.11635 0.053013 0.377
0.11573 0.053013 0.377
0.11542 0.053154 0.378
0.11481 0.053154 0.378
0.11419 0.053154 0.378
0.11388 0.053295 0.379
0.11326 0.053295 0.379
0.11294 0.053435 0.38
0.11232 0.053435 0.38
0.11229 0.053716 0.382
0.11225 0.053998 0.384
0.11162 0.053998 0.384
0.11157 0.054279 0.386
0.11095 0.054279 0.386
0.11089 0.05456 0.388
0.11083 0.054841 0.39
0.11019 0.054841 0.39
0.11012 0.055123 0.392
0.10948 0.055123 0.392
0.10939 0.055404 0.394
0.10875 0.055404 0.394
0.10866 0.055685 0.396
0.10829 0.055826 0.397
0.10764 0.055826 0.397
0.10726 0.055966 0.398
0.10661 0.055966 0.398
0.10596 0.055966 0.398
0.10558 0.056107 0.399
0.10493 0.056107 0.399
0.10454 0.056248 0.4
0.10415 0.056388 0.401
0.10349 0.056388 0.401
0.1031 0.056529 0.402
0.10244 0.056529 0.402
0.10204 0.056669 0.403
0.10164 0.05681 0.404
0.10098 0.05681 0.404
0.10057 0.056951 0.405
0.099906 0.056951 0.405
0.099246 0.056951 0.405
0.09883 0.057091 0.406
0.098168 0.057091 0.406
0.097506 0.057091 0.406
0.096845 0.057091 0.406
0.09642 0.057232 0.407
0.095757 0.057232 0.407
0.095093 0.057232 0.407
0.09443 0.057232 0.407
0.093997 0.057372 0.408
0.093332 0.057372 0.408
0.092667 0.057372 0.408
0.092002 0.057372 0.408
0.091338 0.057372 0.408
0.090673 0.057372 0.408
0.090008 0.057372 0.408
0.089343 0.057372 0.408
0.088678 0.057372 0.408
0.088013 0.057372 0.408
0.087348 0.057372 0.408
0.086683 0.057372 0.408
0.086018 0.057372 0.408
0.085562 0.057513 0.409
0.084896 0.057513 0.409
0.084229 0.057513 0.409
0.083767 0.057654 0.41
0.083099 0.057654 0.41
0.082632 0.057794 0.411
0.081962 0.057794 0.411
0.08149 0.057935 0.412
0.081015 0.058076 0.413
0.080342 0.058076 0.413
0.079861 0.058216 0.414
0.079187 0.058216 0.414
0.078702 0.058357 0.415
0.078213 0.058497 0.416
0.077535 0.058497 0.416
0.076857 0.058497 0.416
0.076546 0.058779 0.418
0.075865 0.058779 0.418
0.075183 0.058779 0.418
0.074502 0.058779 0.418
0.073821 0.058779 0.418
0.07314 0.058779 0.418
0.072458 0.058779 0.418
0.071949 0.058919 0.419
0.071266 0.058919 0.419
0.070583 0.058919 0.419
0.0699 0.058919 0.419
0.069218 0.058919 0.419
0.068535 0.058919 0.419
0.13673 0.052677 0.379
0.13575 0.052538 0.378
0.13514 0.052538 0.378
0.13416 0.052399 0.377
0.13355 0.052399 0.377
0.13293 0.052399 0.377
0.13197 0.05226 0.376
0.13136 0.05226 0.376
0.13074 0.05226 0.376
0.12979 0.052121 0.375
0.12917 0.052121 0.375
0.12856 0.052121 0.375
0.12761 0.051982 0.374
0.127 0.051982 0.374
0.12639 0.051982 0.374
0.12578 0.051982 0.374
0.12517 0.051982 0.374
0.12456 0.051982 0.374
0.12395 0.051982 0.374
0.12334 0.051982 0.374
0.12273 0.051982 0.374
0.12212 0.051982 0.374
0.12152 0.051982 0.374
0.12123 0.052121 0.375
0.12062 0.052121 0.375
0.12001 0.052121 0.375
0.1194 0.052121 0.375
0.11879 0.052121 0.375
0.11849 0.05226 0.376
0.11788 0.05226 0.376
0.11726 0.05226 0.376
0.11696 0.052399 0.377
0.11635 0.052399 0.377
0.11573 0.052399 0.377
0.11542 0.052538 0.378
0.11481 0.052538 0.378
0.11419 0.052538 0.378
0.11388 0.052677 0.379
0.11326 0.052677 0.379
0.11294 0.052816 0.38
0.11232 0.052816 0.38
0.11229 0.053094 0.382
0.11254 0.053511 0.385
0.11191 0.053511 0.385
0.11186 0.053789 0.387
0.11123 0.053789 0.387
0.11132 0.054762 0.394
0.11068 0.054762 0.394
0.11003 0.054762 0.394
0.10995 0.05504 0.396
0.1093 0.05504 0.396
0.10921 0.055318 0.398
0.10883 0.055457 0.399
0.10818 0.055457 0.399
0.1078 0.055596 0.4
0.10715 0.055596 0.4
0.1065 0.055596 0.4
0.10611 0.055735 0.401
0.10545 0.055735 0.401
0.1048 0.055735 0.401
0.10415 0.055735 0.401
0.10375 0.055874 0.402
0.10335 0.056013 0.403
0.1027 0.056013 0.403
0.10229 0.056152 0.404
0.10164 0.056152 0.404
0.10098 0.056152 0.404
0.10057 0.056291 0.405
0.099906 0.056291 0.405
0.099491 0.05643 0.406
0.09883 0.05643 0.406
0.098168 0.05643 0.406
0.097747 0.056569 0.407
0.097083 0.056569 0.407
0.09642 0.056569 0.407
0.095757 0.056569 0.407
0.095093 0.056569 0.407
0.094662 0.056708 0.408
0.093997 0.056708 0.408
0.093332 0.056708 0.408
0.092667 0.056708 0.408
0.092002 0.056708 0.408
0.091338 0.056708 0.408
0.090673 0.056708 0.408
0.090008 0.056708 0.408
0.089343 0.056708 0.408
0.088678 0.056708 0.408
0.088013 0.056708 0.408
0.087348 0.056708 0.408
0.086683 0.056708 0.408
0.086018 0.056708 0.408
0.085562 0.056847 0.409
0.084896 0.056847 0.409
0.084229 0.056847 0.409
0.083767 0.056986 0.41
0.083099 0.056986 0.41
0.082632 0.057125 0.411
0.081962 0.057125 0.411
0.08149 0.057264 0.412
0.081015 0.057403 0.413
0.080342 0.057403 0.413
0.079861 0.057542 0.414
0.079187 0.057542 0.414
0.078702 0.057681 0.415
0.078025 0.057681 0.415
0.077349 0.057681 0.415
0.076857 0.05782 0.416
0.076363 0.057959 0.417
0.075683 0.057959 0.417
0.075183 0.058098 0.418
0.074502 0.058098 0.418
0.073821 0.058098 0.418
0.07314 0.058098 0.418
0.072458 0.058098 0.418
0.071949 0.058237 0.419
0.071266 0.058237 0.419
0.070583 0.058237 0.419
0.0699 0.058237 0.419
0.069218 0.058237 0.419
0.068535 0.058237 0.419
0.13673 0.052059 0.379
0.13575 0.051922 0.378
0.13514 0.051922 0.378
0.13452 0.051922 0.378
0.13355 0.051785 0.377
0.13293 0.051785 0.377
0.13232 0.051785 0.377
0.13136 0.051647 0.376
0.13074 0.051647 0.376
0.13013 0.051647 0.376
0.12952 0.051647 0.376
0.12856 0.05151 0.375
0.12795 0.05151 0.375
0.12734 0.05151 0.375
0.12639 0.051373 0.374
0.12578 0.051373 0.374
0.12517 0.051373 0.374
0.12456 0.051373 0.374
0.12395 0.051373 0.374
0.12367 0.05151 0.375
0.12306 0.05151 0.375
0.12245 0.05151 0.375
0.12184 0.05151 0.375
0.12123 0.05151 0.375
0.12062 0.05151 0.375
0.12001 0.05151 0.375
0.11972 0.051647 0.376
0.1191 0.051647 0.376
0.11849 0.051647 0.376
0.11788 0.051647 0.376
0.11726 0.051647 0.376
0.11696 0.051785 0.377
0.11665 0.051922 0.378
0.11604 0.051922 0.378
0.11542 0.051922 0.378
0.11481 0.051922 0.378
0.11449 0.052059 0.379
0.11418 0.052197 0.38
0.11356 0.052197 0.38
0.11324 0.052334 0.381
0.11261 0.052334 0.381
0.11229 0.052472 0.382
0.11254 0.052884 0.385
0.11191 0.052884 0.385
0.11186 0.053158 0.387
0.11123 0.053158 0.387
0.11168 0.053983 0.393
0.11104 0.053983 0.393
0.11068 0.05412 0.394
0.11003 0.05412 0.394
0.10995 0.054395 0.396
0.1093 0.054395 0.396
0.10921 0.054669 0.398
0.10883 0.054807 0.399
0.10818 0.054807 0.399
0.1078 0.054944 0.4
0.10715 0.054944 0.4
0.1065 0.054944 0.4
0.10611 0.055081 0.401
0.10545 0.055081 0.401
0.1048 0.055081 0.401
0.10415 0.055081 0.401
0.10375 0.055219 0.402
0.10335 0.055356 0.403
0.1027 0.055356 0.403
0.10229 0.055494 0.404
0.10164 0.055494 0.404
0.10098 0.055494 0.404
0.10057 0.055631 0.405
0.099906 0.055631 0.405
0.099491 0.055768 0.406
0.09883 0.055768 0.406
0.098168 0.055768 0.406
0.097747 0.055906 0.407
0.097083 0.055906 0.407
0.09642 0.055906 0.407
0.095757 0.055906 0.407
0.095093 0.055906 0.407
0.094662 0.056043 0.408
0.093997 0.056043 0.408
0.093332 0.056043 0.408
0.092667 0.056043 0.408
0.092002 0.056043 0.408
0.091338 0.056043 0.408
0.090673 0.056043 0.408
0.090008 0.056043 0.408
0.089343 0.056043 0.408
0.088678 0.056043 0.408
0.088013 0.056043 0.408
0.087348 0.056043 0.408
0.086683 0.056043 0.408
0.086229 0.05618 0.409
0.085562 0.05618 0.409
0.084896 0.05618 0.409
0.084229 0.05618 0.409
0.083767 0.056318 0.41
0.083099 0.056318 0.41
0.082632 0.056455 0.411
0.081962 0.056455 0.411
0.08149 0.056592 0.412
0.081015 0.05673 0.413
0.080342 0.05673 0.413
0.079861 0.056867 0.414
0.079187 0.056867 0.414
0.078702 0.057004 0.415
0.078025 0.057004 0.415
0.077349 0.057004 0.415
0.076857 0.057142 0.416
0.076363 0.057279 0.417
0.075683 0.057279 0.417
0.075183 0.057417 0.418
0.074502 0.057417 0.418
0.073821 0.057417 0.418
0.07314 0.057417 0.418
0.072458 0.057417 0.418
0.071949 0.057554 0.419
0.071266 0.057554 0.419
0.070583 0.057554 0.419
0.0699 0.057554 0.419
0.069218 0.057554 0.419
0.068535 0.057554 0.419
0.13673 0.051442 0.379
0.13575 0.051306 0.378
0.13514 0.051306 0.378
0.13452 0.051306 0.378
0.13355 0.051171 0.377
0.13293 0.051171 0.377
0.13232 0.051171 0.377
0.13136 0.051035 0.376
0.13074 0.051035 0.376
0.13013 0.051035 0.376
0.12952 0.051035 0.376
0.12856 0.050899 0.375
0.12795 0.050899 0.375
0.12734 0.050899 0.375
0.12639 0.050763 0.374
0.12578 0.050763 0.374
0.12517 0.050763 0.374
0.12456 0.050763 0.374
0.12395 0.050763 0.374
0.12367 0.050899 0.375
0.12306 0.050899 0.375
0.12245 0.050899 0.375
0.12184 0.050899 0.375
0.12123 0.050899 0.375
0.12062 0.050899 0.375
0.12001 0.050899 0.375
0.11972 0.051035 0.376
0.1191 0.051035 0.376
0.11849 0.051035 0.376
0.11788 0.051035 0.376
0.11726 0.051035 0.376
0.11696 0.051171 0.377
0.11665 0.051306 0.378
0.11604 0.051306 0.378
0.11542 0.051306 0.378
0.11481 0.051306 0.378
0.11449 0.051442 0.379
0.11418 0.051578 0.38
0.11356 0.051578 0.38
0.11294 0.051578 0.38
0.11232 0.051578 0.38
0.11229 0.051849 0.382
0.11254 0.052256 0.385
0.11191 0.052256 0.385
0.11215 0.052664 0.388
0.11152 0.052664 0.388
0.11168 0.053342 0.393
0.11104 0.053342 0.393
0.11124 0.053749 0.396
0.11059 0.053749 0.396
0.1105 0.054021 0.398
0.10985 0.054021 0.398
0.10948 0.054157 0.399
0.1091 0.054292 0.4
0.10845 0.054292 0.4
0.10807 0.054428 0.401
0.10741 0.054428 0.401
0.10676 0.054428 0.401
0.10637 0.054564 0.402
0.10572 0.054564 0.402
0.10506 0.054564 0.402
0.10441 0.054564 0.402
0.10401 0.0547 0.403
0.10335 0.0547 0.403
0.1027 0.0547 0.403
0.10229 0.054835 0.404
0.10189 0.054971 0.405
0.10123 0.054971 0.405
0.10082 0.055107 0.406
0.10015 0.055107 0.406
0.099491 0.055107 0.406
0.099073 0.055242 0.407
0.09841 0.055242 0.407
0.097747 0.055242 0.407
0.097083 0.055242 0.407
0.09642 0.055242 0.407
0.095757 0.055242 0.407
0.095093 0.055242 0.407
0.094662 0.055378 0.408
0.093997 0.055378 0.408
0.093332 0.055378 0.408
0.092667 0.055378 0.408
0.092002 0.055378 0.408
0.091338 0.055378 0.408
0.090673 0.055378 0.408
0.090008 0.055378 0.408
0.089343 0.055378 0.408
0.088678 0.055378 0.408
0.088013 0.055378 0.408
0.087562 0.055514 0.409
0.086896 0.055514 0.409
0.086229 0.055514 0.409
0.085562 0.055514 0.409
0.084896 0.055514 0.409
0.084435 0.05565 0.41
0.083767 0.05565 0.41
0.083099 0.05565 0.41
0.082632 0.055785 0.411
0.081962 0.055785 0.411
0.08149 0.055921 0.412
0.081015 0.056057 0.413
0.080342 0.056057 0.413
0.079861 0.056193 0.414
0.079187 0.056193 0.414
0.078702 0.056328 0.415
0.078025 0.056328 0.415
0.077349 0.056328 0.415
0.076857 0.056464 0.416
0.076363 0.0566 0.417
0.075683 0.0566 0.417
0.075183 0.056735 0.418
0.074502 0.056735 0.418
0.073821 0.056735 0.418
0.07314 0.056735 0.418
0.072458 0.056735 0.418
0.071949 0.056871 0.419
0.071266 0.056871 0.419
0.070583 0.056871 0.419
0.0699 0.056871 0.419
0.069218 0.056871 0.419
0.13709 0.050959 0.38
0.13611 0.050824 0.379
0.13549 0.050824 0.379
0.13452 0.05069 0.378
0.1339 0.05069 0.378
0.13329 0.05069 0.378
0.13232 0.050556 0.377
0.13171 0.050556 0.377
0.13109 0.050556 0.377
0.13013 0.050422 0.376
0.12952 0.050422 0.376
0.12891 0.050422 0.376
0.12795 0.050288 0.375
0.12734 0.050288 0.375
0.12673 0.050288 0.375
0.12612 0.050288 0.375
0.12551 0.050288 0.375
0.1249 0.050288 0.375
0.12429 0.050288 0.375
0.12367 0.050288 0.375
0.12306 0.050288 0.375
0.12245 0.050288 0.375
0.12184 0.050288 0.375
0.12123 0.050288 0.375
0.12094 0.050422 0.376
0.12033 0.050422 0.376
0.11972 0.050422 0.376
0.1191 0.050422 0.376
0.11849 0.050422 0.376
0.11788 0.050422 0.376
0.11726 0.050422 0.376
0.11696 0.050556 0.377
0.11665 0.05069 0.378
0.11604 0.05069 0.378
0.11542 0.05069 0.378
0.11481 0.05069 0.378
0.11449 0.050824 0.379
0.11418 0.050959 0.38
0.11356 0.050959 0.38
0.11294 0.050959 0.38
0.11232 0.050959 0.38
0.11258 0.051361 0.383
0.11196 0.052836 0.394
0.11132 0.052836 0.394
0.11152 0.053238 0.397
0.11087 0.053238 0.397
0.11106 0.053641 0.4
0.11041 0.053641 0.4
0.11003 0.053775 0.401
0.10938 0.053775 0.401
0.10899 0.053909 0.402
0.10834 0.053909 0.402
0.10768 0.053909 0.402
0.10703 0.053909 0.402
0.10664 0.054043 0.403
0.10598 0.054043 0.403
0.10532 0.054043 0.403
0.10467 0.054043 0.403
0.10427 0.054177 0.404
0.10361 0.054177 0.404
0.10295 0.054177 0.404
0.10255 0.054311 0.405
0.10189 0.054311 0.405
0.10123 0.054311 0.405
0.10082 0.054445 0.406
0.10015 0.054445 0.406
0.099491 0.054445 0.406
0.099073 0.054579 0.407
0.09841 0.054579 0.407
0.097747 0.054579 0.407
0.097083 0.054579 0.407
0.09642 0.054579 0.407
0.095757 0.054579 0.407
0.095093 0.054579 0.407
0.09443 0.054579 0.407
0.093997 0.054713 0.408
0.093332 0.054713 0.408
0.092667 0.054713 0.408
0.092002 0.054713 0.408
0.091338 0.054713 0.408
0.090673 0.054713 0.408
0.090008 0.054713 0.408
0.089343 0.054713 0.408
0.088678 0.054713 0.408
0.088013 0.054713 0.408
0.087562 0.054848 0.409
0.086896 0.054848 0.409
0.086229 0.054848 0.409
0.085562 0.054848 0.409
0.084896 0.054848 0.409
0.084435 0.054982 0.41
0.083767 0.054982 0.41
0.083099 0.054982 0.41
0.082632 0.055116 0.411
0.081962 0.055116 0.411
0.08149 0.05525 0.412
0.081015 0.055384 0.413
0.080342 0.055384 0.413
0.079861 0.055518 0.414
0.079187 0.055518 0.414
0.078512 0.055518 0.414
0.078025 0.055652 0.415
0.077349 0.055652 0.415
0.076857 0.055786 0.416
0.076363 0.05592 0.417
0.075683 0.05592 0.417
0.075183 0.056054 0.418
0.074502 0.056054 0.418
0.073821 0.056054 0.418
0.07314 0.056054 0.418
0.072458 0.056054 0.418
0.071949 0.056189 0.419
0.071266 0.056189 0.419
0.070583 0.056189 0.419
0.0699 0.056189 0.419
0.069218 0.056189 0.419
0.13647 0.050339 0.38
0.13585 0.050339 0.38
0.13488 0.050207 0.379
0.13426 0.050207 0.379
0.13364 0.050207 0.379
0.13267 0.050074 0.378
0.13206 0.050074 0.378
0.13109 0.049942 0.377
0.13048 0.049942 0.377
0.12986 0.049942 0.377
0.12891 0.04981 0.376
0.12829 0.04981 0.376
0.12768 0.04981 0.376
0.12673 0.049677 0.375
0.12612 0.049677 0.375
0.12551 0.049677 0.375
0.1249 0.049677 0.375
0.12429 0.049677 0.375
0.12367 0.049677 0.375
0.12306 0.049677 0.375
0.12245 0.049677 0.375
0.12184 0.049677 0.375
0.12155 0.04981 0.376
0.12094 0.04981 0.376
0.12033 0.04981 0.376
0.11972 0.04981 0.376
0.1191 0.04981 0.376
0.11849 0.04981 0.376
0.11788 0.04981 0.376
0.11726 0.04981 0.376
0.11696 0.049942 0.377
0.11665 0.050074 0.378
0.11604 0.050074 0.378
0.11542 0.050074 0.378
0.11481 0.050074 0.378
0.11449 0.050207 0.379
0.11418 0.050339 0.38
0.11356 0.050339 0.38
0.11294 0.050339 0.38
0.11232 0.050339 0.38
0.11258 0.050737 0.383
0.11196 0.052194 0.394
0.11132 0.052194 0.394
0.11152 0.052591 0.397
0.11087 0.052591 0.397
0.11106 0.052989 0.4
0.11041 0.052989 0.4
0.11003 0.053121 0.401
0.10938 0.053121 0.401
0.10899 0.053254 0.402
0.10834 0.053254 0.402
0.10768 0.053254 0.402
0.10703 0.053254 0.402
0.10664 0.053386 0.403
0.10598 0.053386 0.403
0.10532 0.053386 0.403
0.10467 0.053386 0.403
0.10427 0.053519 0.404
0.10361 0.053519 0.404
0.10295 0.053519 0.404
0.10255 0.053651 0.405
0.10189 0.053651 0.405
0.10123 0.053651 0.405
0.10082 0.053784 0.406
0.10015 0.053784 0.406
0.099491 0.053784 0.406
0.09883 0.053784 0.406
0.098168 0.053784 0.406
0.097747 0.053916 0.407
0.097083 0.053916 0.407
0.09642 0.053916 0.407
0.095757 0.053916 0.407
0.095093 0.053916 0.407
0.09443 0.053916 0.407
0.093767 0.053916 0.407
0.093104 0.053916 0.407
0.092667 0.054049 0.408
0.092002 0.054049 0.408
0.091338 0.054049 0.408
0.090673 0.054049 0.408
0.090008 0.054049 0.408
0.089343 0.054049 0.408
0.088678 0.054049 0.408
0.088013 0.054049 0.408
0.087562 0.054181 0.409
0.086896 0.054181 0.409
0.086229 0.054181 0.409
0.085562 0.054181 0.409
0.084896 0.054181 0.409
0.084435 0.054314 0.41
0.083767 0.054314 0.41
0.083099 0.054314 0.41
0.082632 0.054446 0.411
0.081962 0.054446 0.411
0.08149 0.054579 0.412
0.081015 0.054711 0.413
0.080342 0.054711 0.413
0.079669 0.054711 0.413
0.079187 0.054843 0.414
0.078512 0.054843 0.414
0.078025 0.054976 0.415
0.077349 0.054976 0.415
0.076857 0.055108 0.416
0.076363 0.055241 0.417
0.075683 0.055241 0.417
0.075003 0.055241 0.417
0.074324 0.055241 0.417
0.073821 0.055373 0.418
0.07314 0.055373 0.418
0.072458 0.055373 0.418
0.071949 0.055506 0.419
0.071266 0.055506 0.419
0.070583 0.055506 0.419
0.13647 0.04972 0.38
0.13585 0.04972 0.38
0.13488 0.049589 0.379
0.13426 0.049589 0.379
0.13364 0.049589 0.379
0.13267 0.049459 0.378
0.13206 0.049459 0.378
0.13109 0.049328 0.377
0.13048 0.049328 0.377
0.12986 0.049328 0.377
0.12891 0.049197 0.376
0.12829 0.049197 0.376
0.12768 0.049197 0.376
0.12673 0.049066 0.375
0.12612 0.049066 0.375
0.12551 0.049066 0.375
0.1249 0.049066 0.375
0.12429 0.049066 0.375
0.12367 0.049066 0.375
0.12306 0.049066 0.375
0.12245 0.049066 0.375
0.12184 0.049066 0.375
0.12155 0.049197 0.376
0.12094 0.049197 0.376
0.12033 0.049197 0.376
0.11972 0.049197 0.376
0.1191 0.049197 0.376
0.11849 0.049197 0.376
0.11788 0.049197 0.376
0.11726 0.049197 0.376
0.11696 0.049328 0.377
0.11665 0.049459 0.378
0.11604 0.049459 0.378
0.11542 0.049459 0.378
0.11481 0.049459 0.378
0.11449 0.049589 0.379
0.11418 0.04972 0.38
0.11356 0.04972 0.38
0.11324 0.049851 0.381
0.11261 0.049851 0.381
0.11253 0.051814 0.396
0.11188 0.051814 0.396
0.11208 0.052206 0.399
0.11143 0.052206 0.399
0.11134 0.052468 0.401
0.11068 0.052468 0.401
0.1103 0.052599 0.402
0.10965 0.052599 0.402
0.10927 0.05273 0.403
0.10861 0.05273 0.403
0.10795 0.05273 0.403
0.10729 0.05273 0.403
0.10664 0.05273 0.403
0.10598 0.05273 0.403
0.10558 0.052861 0.404
0.10493 0.052861 0.404
0.10427 0.052861 0.404
0.10387 0.052991 0.405
0.10321 0.052991 0.405
0.10255 0.052991 0.405
0.10189 0.052991 0.405
0.10123 0.052991 0.405
0.10082 0.053122 0.406
0.10015 0.053122 0.406
0.099491 0.053122 0.406
0.09883 0.053122 0.406
0.098168 0.053122 0.406
0.097747 0.053253 0.407
0.097083 0.053253 0.407
0.09642 0.053253 0.407
0.095757 0.053253 0.407
0.095093 0.053253 0.407
0.09443 0.053253 0.407
0.093767 0.053253 0.407
0.093104 0.053253 0.407
0.092667 0.053384 0.408
0.092002 0.053384 0.408
0.091338 0.053384 0.408
0.090673 0.053384 0.408
0.090008 0.053384 0.408
0.089343 0.053384 0.408
0.088678 0.053384 0.408
0.088013 0.053384 0.408
0.087562 0.053515 0.409
0.086896 0.053515 0.409
0.086229 0.053515 0.409
0.085562 0.053515 0.409
0.084896 0.053515 0.409
0.084435 0.053646 0.41
0.083767 0.053646 0.41
0.083099 0.053646 0.41
0.082632 0.053776 0.411
0.081962 0.053776 0.411
0.08149 0.053907 0.412
0.081015 0.054038 0.413
0.080342 0.054038 0.413
0.079669 0.054038 0.413
0.079187 0.054169 0.414
0.078512 0.054169 0.414
0.078025 0.0543 0.415
0.077349 0.0543 0.415
0.076857 0.054431 0.416
0.076363 0.054561 0.417
0.075683 0.054561 0.417
0.075003 0.054561 0.417
0.074324 0.054561 0.417
0.073821 0.054692 0.418
0.07314 0.054692 0.418
0.072458 0.054692 0.418
0.071949 0.054823 0.419
0.071266 0.054823 0.419
0.070583 0.054823 0.419
0.13647 0.049101 0.38
0.13585 0.049101 0.38
0.13488 0.048972 0.379
0.13426 0.048972 0.379
0.13364 0.048972 0.379
0.13267 0.048843 0.378
0.13206 0.048843 0.378
0.13144 0.048843 0.378
0.13048 0.048714 0.377
0.12986 0.048714 0.377
0.12925 0.048714 0.377
0.12829 0.048584 0.376
0.12768 0.048584 0.376
0.12707 0.048584 0.376
0.12646 0.048584 0.376
0.12584 0.048584 0.376
0.1249 0.048455 0.375
0.12429 0.048455 0.375
0.12367 0.048455 0.375
0.12339 0.048584 0.376
0.12278 0.048584 0.376
0.12217 0.048584 0.376
0.12155 0.048584 0.376
0.12094 0.048584 0.376
0.12033 0.048584 0.376
0.11972 0.048584 0.376
0.1191 0.048584 0.376
0.11849 0.048584 0.376
0.11788 0.048584 0.376
0.11726 0.048584 0.376
0.11696 0.048714 0.377
0.11665 0.048843 0.378
0.11604 0.048843 0.378
0.11542 0.048843 0.378
0.11481 0.048843 0.378
0.11449 0.048972 0.379
0.11264 0.051815 0.401
0.11199 0.051815 0.401
0.11161 0.051944 0.402
0.11096 0.051944 0.402
0.11085 0.052202 0.404
0.11019 0.052202 0.404
0.10954 0.052202 0.404
0.10888 0.052202 0.404
0.10822 0.052202 0.404
0.10756 0.052202 0.404
0.1069 0.052202 0.404
0.10624 0.052202 0.404
0.10558 0.052202 0.404
0.10493 0.052202 0.404
0.10427 0.052202 0.404
0.10387 0.052331 0.405
0.10321 0.052331 0.405
0.10255 0.052331 0.405
0.10189 0.052331 0.405
0.10123 0.052331 0.405
0.10082 0.052461 0.406
0.10015 0.052461 0.406
0.099491 0.052461 0.406
0.09883 0.052461 0.406
0.098168 0.052461 0.406
0.097506 0.052461 0.406
0.097083 0.05259 0.407
0.09642 0.05259 0.407
0.095757 0.05259 0.407
0.095093 0.05259 0.407
0.09443 0.05259 0.407
0.093767 0.05259 0.407
0.093104 0.05259 0.407
0.09244 0.05259 0.407
0.092002 0.052719 0.408
0.091338 0.052719 0.408
0.090673 0.052719 0.408
0.090008 0.052719 0.408
0.089343 0.052719 0.408
0.088678 0.052719 0.408
0.088013 0.052719 0.408
0.087562 0.052848 0.409
0.086896 0.052848 0.409
0.086229 0.052848 0.409
0.085562 0.052848 0.409
0.084896 0.052848 0.409
0.084435 0.052978 0.41
0.083767 0.052978 0.41
0.083099 0.052978 0.41
0.082632 0.053107 0.411
0.081962 0.053107 0.411
0.08149 0.053236 0.412
0.081015 0.053365 0.413
0.080342 0.053365 0.413
0.079669 0.053365 0.413
0.079187 0.053494 0.414
0.078512 0.053494 0.414
0.078025 0.053624 0.415
0.077349 0.053624 0.415
0.076857 0.053753 0.416
0.07618 0.053753 0.416
0.075502 0.053753 0.416
0.075003 0.053882 0.417
0.074324 0.053882 0.417
0.13523 0.048482 0.38
0.13426 0.048354 0.379
0.13364 0.048354 0.379
0.13267 0.048227 0.378
0.13206 0.048227 0.378
0.13144 0.048227 0.378
0.13048 0.048099 0.377
0.12986 0.048099 0.377
0.12925 0.048099 0.377
0.12829 0.047972 0.376
0.12768 0.047972 0.376
0.12707 0.047972 0.376
0.12646 0.047972 0.376
0.12584 0.047972 0.376
0.1249 0.047844 0.375
0.12429 0.047844 0.375
0.12367 0.047844 0.375
0.12339 0.047972 0.376
0.12278 0.047972 0.376
0.12217 0.047972 0.376
0.12155 0.047972 0.376
0.12094 0.047972 0.376
0.12033 0.047972 0.376
0.11972 0.047972 0.376
0.1191 0.047972 0.376
0.11849 0.047972 0.376
0.11788 0.047972 0.376
0.11726 0.047972 0.376
0.11696 0.048099 0.377
0.11665 0.048227 0.378
0.11604 0.048227 0.378
0.11542 0.048227 0.378
0.11481 0.048227 0.378
0.11449 0.048354 0.379
0.11385 0.04861 0.381
0.11324 0.04861 0.381
0.11261 0.04861 0.381
0.11264 0.051161 0.401
0.11199 0.051161 0.401
0.11161 0.051289 0.402
0.11096 0.051289 0.402
0.11085 0.051544 0.404
0.11019 0.051544 0.404
0.10954 0.051544 0.404
0.10888 0.051544 0.404
0.10822 0.051544 0.404
0.10756 0.051544 0.404
0.1069 0.051544 0.404
0.10624 0.051544 0.404
0.10558 0.051544 0.404
0.10493 0.051544 0.404
0.10427 0.051544 0.404
0.10387 0.051672 0.405
0.10321 0.051672 0.405
0.10255 0.051672 0.405
0.10189 0.051672 0.405
0.10123 0.051672 0.405
0.10057 0.051672 0.405
0.099906 0.051672 0.405
0.099491 0.051799 0.406
0.09883 0.051799 0.406
0.098168 0.051799 0.406
0.097506 0.051799 0.406
0.096845 0.051799 0.406
0.096183 0.051799 0.406
0.095757 0.051927 0.407
0.095093 0.051927 0.407
0.09443 0.051927 0.407
0.093767 0.051927 0.407
0.093104 0.051927 0.407
0.09244 0.051927 0.407
0.092002 0.052054 0.408
0.091338 0.052054 0.408
0.090673 0.052054 0.408
0.090008 0.052054 0.408
0.089343 0.052054 0.408
0.088678 0.052054 0.408
0.088013 0.052054 0.408
0.087562 0.052182 0.409
0.086896 0.052182 0.409
0.086229 0.052182 0.409
0.085772 0.05231 0.41
0.085103 0.05231 0.41
0.084435 0.05231 0.41
0.083971 0.052437 0.411
0.083302 0.052437 0.411
0.082632 0.052437 0.411
0.081962 0.052437 0.411
0.08149 0.052565 0.412
0.081015 0.052692 0.413
0.080342 0.052692 0.413
0.079861 0.05282 0.414
0.079187 0.05282 0.414
0.078512 0.05282 0.414
0.078025 0.052947 0.415
0.077349 0.052947 0.415
0.076857 0.053075 0.416
0.07618 0.053075 0.416
0.075502 0.053075 0.416
0.075003 0.053203 0.417
0.074324 0.053203 0.417
0.13523 0.047863 0.38
0.13426 0.047737 0.379
0.13364 0.047737 0.379
0.13267 0.047611 0.378
0.13206 0.047611 0.378
0.13144 0.047611 0.378
0.13048 0.047485 0.377
0.12986 0.047485 0.377
0.12925 0.047485 0.377
0.12829 0.047359 0.376
0.12768 0.047359 0.376
0.12707 0.047359 0.376
0.12646 0.047359 0.376
0.12584 0.047359 0.376
0.12523 0.047359 0.376
0.12462 0.047359 0.376
0.124 0.047359 0.376
0.12339 0.047359 0.376
0.12278 0.047359 0.376
0.12217 0.047359 0.376
0.12155 0.047359 0.376
0.12126 0.047485 0.377
0.12065 0.047485 0.377
0.12003 0.047485 0.377
0.11942 0.047485 0.377
0.1188 0.047485 0.377
0.11819 0.047485 0.377
0.11757 0.047485 0.377
0.11727 0.047611 0.378
0.11696 0.047737 0.379
0.11635 0.047737 0.379
0.11542 0.047863 0.38
0.11479 0.047863 0.38
0.11385 0.047989 0.381
0.11324 0.047989 0.381
0.11261 0.047989 0.381
0.10954 0.050886 0.404
0.10888 0.050886 0.404
0.10822 0.050886 0.404
0.10756 0.050886 0.404
0.1069 0.050886 0.404
0.10624 0.050886 0.404
0.10585 0.051012 0.405
0.10519 0.051012 0.405
0.10453 0.051012 0.405
0.10387 0.051012 0.405
0.10321 0.051012 0.405
0.10255 0.051012 0.405
0.10189 0.051012 0.405
0.10123 0.051012 0.405
0.10057 0.051012 0.405
0.099906 0.051012 0.405
0.099491 0.051138 0.406
0.09883 0.051138 0.406
0.098168 0.051138 0.406
0.097506 0.051138 0.406
0.096845 0.051138 0.406
0.096183 0.051138 0.406
0.095757 0.051264 0.407
0.095093 0.051264 0.407
0.09443 0.051264 0.407
0.093767 0.051264 0.407
0.093104 0.051264 0.407
0.09244 0.051264 0.407
0.092002 0.05139 0.408
0.091338 0.05139 0.408
0.090673 0.05139 0.408
0.090008 0.05139 0.408
0.089343 0.05139 0.408
0.088678 0.05139 0.408
0.088013 0.05139 0.408
0.087562 0.051516 0.409
0.086896 0.051516 0.409
0.086229 0.051516 0.409
0.085772 0.051642 0.41
0.085103 0.051642 0.41
0.084435 0.051642 0.41
0.083971 0.051767 0.411
0.083302 0.051767 0.411
0.082632 0.051767 0.411
0.081962 0.051767 0.411
0.08149 0.051893 0.412
0.081015 0.052019 0.413
0.080342 0.052019 0.413
0.079861 0.052145 0.414
0.079187 0.052145 0.414
0.078512 0.052145 0.414
0.078025 0.052271 0.415
0.077349 0.052271 0.415
0.076857 0.052397 0.416
0.07618 0.052397 0.416
0.075502 0.052397 0.416
0.075003 0.052523 0.417
0.074324 0.052523 0.417
0.13426 0.047119 0.379
0.13364 0.047119 0.379
0.13302 0.047119 0.379
0.1324 0.047119 0.379
0.13144 0.046995 0.378
0.13082 0.046995 0.378
0.13021 0.046995 0.378
0.12925 0.046871 0.377
0.12829 0.046746 0.376
0.12768 0.046746 0.376
0.12707 0.046746 0.376
0.12646 0.046746 0.376
0.12584 0.046746 0.376
0.12523 0.046746 0.376
0.12462 0.046746 0.376
0.124 0.046746 0.376
0.12339 0.046746 0.376
0.12278 0.046746 0.376
0.12217 0.046746 0.376
0.12155 0.046746 0.376
0.12126 0.046871 0.377
0.12065 0.046871 0.377
0.12003 0.046871 0.377
0.11942 0.046871 0.377
0.1188 0.046871 0.377
0.11819 0.046871 0.377
0.11757 0.046871 0.377
0.11727 0.046995 0.378
0.10954 0.050228 0.404
0.10888 0.050228 0.404
0.10822 0.050228 0.404
0.10756 0.050228 0.404
0.1069 0.050228 0.404
0.10624 0.050228 0.404
0.10585 0.050352 0.405
0.10519 0.050352 0.405
0.10453 0.050352 0.405
0.10387 0.050352 0.405
0.10321 0.050352 0.405
0.10255 0.050352 0.405
0.10189 0.050352 0.405
0.10123 0.050352 0.405
0.10057 0.050352 0.405
0.099906 0.050352 0.405
0.099491 0.050476 0.406
0.09883 0.050476 0.406
0.098168 0.050476 0.406
0.097506 0.050476 0.406
0.096845 0.050476 0.406
0.096183 0.050476 0.406
0.095521 0.050476 0.406
0.09486 0.050476 0.406
0.09443 0.050601 0.407
0.093767 0.050601 0.407
0.093104 0.050601 0.407
0.09244 0.050601 0.407
0.091777 0.050601 0.407
0.091114 0.050601 0.407
0.090673 0.050725 0.408
0.090008 0.050725 0.408
0.089343 0.050725 0.408
0.088678 0.050725 0.408
0.088013 0.050725 0.408
0.087562 0.050849 0.409
0.086896 0.050849 0.409
0.086229 0.050849 0.409
0.085772 0.050974 0.41
0.085103 0.050974 0.41
0.084435 0.050974 0.41
0.083971 0.051098 0.411
0.083302 0.051098 0.411
0.082833 0.051222 0.412
0.082161 0.051222 0.412
0.08149 0.051222 0.412
0.081015 0.051346 0.413
0.080342 0.051346 0.413
0.079861 0.051471 0.414
0.079187 0.051471 0.414
0.078512 0.051471 0.414
0.078025 0.051595 0.415
0.077349 0.051595 0.415
0.076673 0.051595 0.415
0.07618 0.051719 0.416
0.075502 0.051719 0.416
0.13426 0.046502 0.379
0.13364 0.046502 0.379
0.13302 0.046502 0.379
0.1324 0.046502 0.379
0.13144 0.046379 0.378
0.13082 0.046379 0.378
0.13021 0.046379 0.378
0.12925 0.046257 0.377
0.12829 0.046134 0.376
0.12768 0.046134 0.376
0.12707 0.046134 0.376
0.12646 0.046134 0.376
0.12584 0.046134 0.376
0.12523 0.046134 0.376
0.12462 0.046134 0.376
0.124 0.046134 0.376
0.12339 0.046134 0.376
0.12278 0.046134 0.376
0.12217 0.046134 0.376
0.12155 0.046134 0.376
0.12126 0.046257 0.377
0.12065 0.046257 0.377
0.12003 0.046257 0.377
0.11942 0.046257 0.377
0.1188 0.046257 0.377
0.11819 0.046257 0.377
0.11757 0.046257 0.377
0.11727 0.046379 0.378
0.10849 0.049692 0.405
0.10783 0.049692 0.405
0.10717 0.049692 0.405
0.10651 0.049692 0.405
0.10585 0.049692 0.405
0.10519 0.049692 0.405
0.10453 0.049692 0.405
0.10387 0.049692 0.405
0.10321 0.049692 0.405
0.10255 0.049692 0.405
0.10189 0.049692 0.405
0.10123 0.049692 0.405
0.10057 0.049692 0.405
0.099906 0.049692 0.405
0.099246 0.049692 0.405
0.098586 0.049692 0.405
0.097926 0.049692 0.405
0.097266 0.049692 0.405
0.096845 0.049815 0.406
0.096183 0.049815 0.406
0.095521 0.049815 0.406
0.09486 0.049815 0.406
0.094198 0.049815 0.406
0.093536 0.049815 0.406
0.092875 0.049815 0.406
0.09244 0.049937 0.407
0.091777 0.049937 0.407
0.091114 0.049937 0.407
0.090673 0.05006 0.408
0.090008 0.05006 0.408
0.089343 0.05006 0.408
0.088678 0.05006 0.408
0.088013 0.05006 0.408
0.087562 0.050183 0.409
0.086896 0.050183 0.409
0.086229 0.050183 0.409
0.085772 0.050305 0.41
0.085103 0.050305 0.41
0.084435 0.050305 0.41
0.083971 0.050428 0.411
0.083302 0.050428 0.411
0.082833 0.050551 0.412
0.082161 0.050551 0.412
0.081688 0.050674 0.413
0.081015 0.050674 0.413
0.080342 0.050674 0.413
0.079861 0.050796 0.414
0.079187 0.050796 0.414
0.078512 0.050796 0.414
0.078025 0.050919 0.415
0.077349 0.050919 0.415
0.076673 0.050919 0.415
0.13302 0.045884 0.379
0.1324 0.045884 0.379
0.13144 0.045763 0.378
0.13082 0.045763 0.378
0.13021 0.045763 0.378
0.12959 0.045763 0.378
0.12863 0.045642 0.377
0.12802 0.045642 0.377
0.12707 0.045521 0.376
0.12646 0.045521 0.376
0.12584 0.045521 0.376
0.12523 0.045521 0.376
0.12462 0.045521 0.376
0.124 0.045521 0.376
0.12372 0.045642 0.377
0.12311 0.045642 0.377
0.12249 0.045642 0.377
0.12188 0.045642 0.377
0.12126 0.045642 0.377
0.12065 0.045642 0.377
0.12003 0.045642 0.377
0.11942 0.045642 0.377
0.1188 0.045642 0.377
0.1185 0.045763 0.378
0.11789 0.045763 0.378
0.10743 0.049153 0.406
0.10651 0.049032 0.405
0.10585 0.049032 0.405
0.10519 0.049032 0.405
0.10453 0.049032 0.405
0.10387 0.049032 0.405
0.10321 0.049032 0.405
0.10255 0.049032 0.405
0.10189 0.049032 0.405
0.10123 0.049032 0.405
0.10057 0.049032 0.405
0.099906 0.049032 0.405
0.099246 0.049032 0.405
0.098586 0.049032 0.405
0.097926 0.049032 0.405
0.097266 0.049032 0.405
0.096845 0.049153 0.406
0.096183 0.049153 0.406
0.095521 0.049153 0.406
0.09486 0.049153 0.406
0.094198 0.049153 0.406
0.093536 0.049153 0.406
0.092875 0.049153 0.406
0.09244 0.049274 0.407
0.091777 0.049274 0.407
0.091114 0.049274 0.407
0.09045 0.049274 0.407
0.089787 0.049274 0.407
0.089343 0.049395 0.408
0.088678 0.049395 0.408
0.088013 0.049395 0.408
0.087562 0.049516 0.409
0.086896 0.049516 0.409
0.086229 0.049516 0.409
0.085772 0.049637 0.41
0.085103 0.049637 0.41
0.084435 0.049637 0.41
0.083971 0.049759 0.411
0.083302 0.049759 0.411
0.082833 0.04988 0.412
0.082161 0.04988 0.412
0.081688 0.050001 0.413
0.081015 0.050001 0.413
0.080342 0.050001 0.413
0.079861 0.050122 0.414
0.079187 0.050122 0.414
0.078512 0.050122 0.414
0.078025 0.050243 0.415
0.077349 0.050243 0.415
0.076673 0.050243 0.415
0.13179 0.045267 0.379
0.13082 0.045147 0.378
0.13021 0.045147 0.378
0.12959 0.045147 0.378
0.12863 0.045028 0.377
0.12802 0.045028 0.377
0.12741 0.045028 0.377
0.12679 0.045028 0.377
0.12618 0.045028 0.377
0.12556 0.045028 0.377
0.12495 0.045028 0.377
0.12433 0.045028 0.377
0.12372 0.045028 0.377
0.12311 0.045028 0.377
0.12249 0.045028 0.377
0.12188 0.045028 0.377
0.12126 0.045028 0.377
0.12065 0.045028 0.377
0.12003 0.045028 0.377
0.11942 0.045028 0.377
0.1188 0.045028 0.377
0.10743 0.048492 0.406
0.10651 0.048372 0.405
0.10585 0.048372 0.405
0.10519 0.048372 0.405
0.10453 0.048372 0.405
0.10387 0.048372 0.405
0.10321 0.048372 0.405
0.10255 0.048372 0.405
0.10189 0.048372 0.405
0.10123 0.048372 0.405
0.10057 0.048372 0.405
0.099906 0.048372 0.405
0.099246 0.048372 0.405
0.098586 0.048372 0.405
0.097926 0.048372 0.405
0.097266 0.048372 0.405
0.096606 0.048372 0.405
0.095946 0.048372 0.405
0.095521 0.048492 0.406
0.09486 0.048492 0.406
0.094198 0.048492 0.406
0.093536 0.048492 0.406
0.092875 0.048492 0.406
0.092213 0.048492 0.406
0.091777 0.048611 0.407
0.091114 0.048611 0.407
0.09045 0.048611 0.407
0.089787 0.048611 0.407
0.089124 0.048611 0.407
0.088678 0.048731 0.408
0.088013 0.048731 0.408
0.087348 0.048731 0.408
0.086896 0.04885 0.409
0.086229 0.04885 0.409
0.085772 0.048969 0.41
0.085103 0.048969 0.41
0.084435 0.048969 0.41
0.083971 0.049089 0.411
0.083302 0.049089 0.411
0.082833 0.049208 0.412
0.082161 0.049208 0.412
0.081688 0.049328 0.413
0.081015 0.049328 0.413
0.080342 0.049328 0.413
0.079861 0.049447 0.414
0.079187 0.049447 0.414
0.078512 0.049447 0.414
0.078025 0.049567 0.415
0.077349 0.049567 0.415
0.076673 0.049567 0.415
0.13179 0.044649 0.379
0.13082 0.044532 0.378
0.13021 0.044532 0.378
0.12959 0.044532 0.378
0.12863 0.044414 0.377
0.12802 0.044414 0.377
0.12741 0.044414 0.377
0.12679 0.044414 0.377
0.12618 0.044414 0.377
0.12556 0.044414 0.377
0.12495 0.044414 0.377
0.12433 0.044414 0.377
0.12372 0.044414 0.377
0.12311 0.044414 0.377
0.12249 0.044414 0.377
0.12188 0.044414 0.377
0.12126 0.044414 0.377
0.12065 0.044414 0.377
0.12003 0.044414 0.377
0.11942 0.044414 0.377
0.1188 0.044414 0.377
0.1185 0.044532 0.378
0.11789 0.044532 0.378
0.10519 0.047712 0.405
0.10453 0.047712 0.405
0.10387 0.047712 0.405
0.10321 0.047712 0.405
0.10255 0.047712 0.405
0.10189 0.047712 0.405
0.10123 0.047712 0.405
0.10057 0.047712 0.405
0.099906 0.047712 0.405
0.099246 0.047712 0.405
0.098586 0.047712 0.405
0.097926 0.047712 0.405
0.097266 0.047712 0.405
0.096606 0.047712 0.405
0.095946 0.047712 0.405
0.095521 0.04783 0.406
0.09486 0.04783 0.406
0.094198 0.04783 0.406
0.093536 0.04783 0.406
0.092875 0.04783 0.406
0.092213 0.04783 0.406
0.091777 0.047948 0.407
0.091114 0.047948 0.407
0.09045 0.047948 0.407
0.089787 0.047948 0.407
0.089124 0.047948 0.407
0.088678 0.048066 0.408
0.088013 0.048066 0.408
0.087348 0.048066 0.408
0.086896 0.048184 0.409
0.086229 0.048184 0.409
0.085772 0.048301 0.41
0.085103 0.048301 0.41
0.084641 0.048419 0.411
0.083971 0.048419 0.411
0.083302 0.048419 0.411
0.082833 0.048537 0.412
0.082161 0.048537 0.412
0.081688 0.048655 0.413
0.081015 0.048655 0.413
0.080342 0.048655 0.413
0.079861 0.048773 0.414
0.079187 0.048773 0.414
0.078512 0.048773 0.414
0.078025 0.04889 0.415
0.077349 0.04889 0.415
0.13082 0.043916 0.378
0.13021 0.043916 0.378
0.12959 0.043916 0.378
0.12863 0.0438 0.377
0.12802 0.0438 0.377
0.12741 0.0438 0.377
0.12679 0.0438 0.377
0.12618 0.0438 0.377
0.12556 0.0438 0.377
0.12495 0.0438 0.377
0.12433 0.0438 0.377
0.12372 0.0438 0.377
0.12311 0.0438 0.377
0.12249 0.0438 0.377
0.12188 0.0438 0.377
0.12065 0.0438 0.377
0.12003 0.0438 0.377
0.11942 0.0438 0.377
0.11912 0.043916 0.378
0.1185 0.043916 0.378
0.11789 0.043916 0.378
0.10545 0.047169 0.406
0.10453 0.047053 0.405
0.10387 0.047053 0.405
0.10321 0.047053 0.405
0.10255 0.047053 0.405
0.10189 0.047053 0.405
0.10123 0.047053 0.405
0.10057 0.047053 0.405
0.099906 0.047053 0.405
0.099246 0.047053 0.405
0.098586 0.047053 0.405
0.097926 0.047053 0.405
0.097266 0.047053 0.405
0.096606 0.047053 0.405
0.095946 0.047053 0.405
0.095521 0.047169 0.406
0.09486 0.047169 0.406
0.094198 0.047169 0.406
0.093536 0.047169 0.406
0.092875 0.047169 0.406
0.092213 0.047169 0.406
0.091777 0.047285 0.407
0.091114 0.047285 0.407
0.09045 0.047285 0.407
0.089787 0.047285 0.407
0.089124 0.047285 0.407
0.088678 0.047401 0.408
0.088013 0.047401 0.408
0.087348 0.047401 0.408
0.086896 0.047517 0.409
0.086229 0.047517 0.409
0.085772 0.047633 0.41
0.085103 0.047633 0.41
0.084641 0.04775 0.411
0.083971 0.04775 0.411
0.083302 0.04775 0.411
0.082833 0.047866 0.412
0.082161 0.047866 0.412
0.081688 0.047982 0.413
0.081015 0.047982 0.413
0.080342 0.047982 0.413
0.079861 0.048098 0.414
0.079187 0.048098 0.414
0.078512 0.048098 0.414
0.078025 0.048214 0.415
0.077349 0.048214 0.415
0.12959 0.0433 0.378
0.12898 0.0433 0.378
0.12836 0.0433 0.378
0.12741 0.043185 0.377
0.12679 0.043185 0.377
0.12618 0.043185 0.377
0.12556 0.043185 0.377
0.12495 0.043185 0.377
0.12433 0.043185 0.377
0.12372 0.043185 0.377
0.12311 0.043185 0.377
0.12249 0.043185 0.377
0.12188 0.043185 0.377
0.12065 0.043185 0.377
0.12003 0.043185 0.377
0.11942 0.043185 0.377
0.11912 0.0433 0.378
0.1185 0.0433 0.378
0.11789 0.0433 0.378
0.10545 0.046507 0.406
0.10453 0.046393 0.405
0.10387 0.046393 0.405
0.10321 0.046393 0.405
0.10255 0.046393 0.405
0.10189 0.046393 0.405
0.10123 0.046393 0.405
0.10057 0.046393 0.405
0.099906 0.046393 0.405
0.099246 0.046393 0.405
0.098586 0.046393 0.405
0.097926 0.046393 0.405
0.097266 0.046393 0.405
0.096606 0.046393 0.405
0.095946 0.046393 0.405
0.095286 0.046393 0.405
0.094626 0.046393 0.405
0.093966 0.046393 0.405
0.093536 0.046507 0.406
0.092875 0.046507 0.406
0.092213 0.046507 0.406
0.091551 0.046507 0.406
0.09089 0.046507 0.406
0.09045 0.046622 0.407
0.089787 0.046622 0.407
0.089124 0.046622 0.407
0.088678 0.046736 0.408
0.088013 0.046736 0.408
0.087348 0.046736 0.408
0.086896 0.046851 0.409
0.086229 0.046851 0.409
0.085772 0.046965 0.41
0.085103 0.046965 0.41
0.084641 0.04708 0.411
0.083971 0.04708 0.411
0.083302 0.04708 0.411
0.082833 0.047195 0.412
0.082161 0.047195 0.412
0.081688 0.047309 0.413
0.081015 0.047309 0.413
0.080342 0.047309 0.413
0.079861 0.047424 0.414
0.12959 0.042684 0.378
0.12898 0.042684 0.378
0.12836 0.042684 0.378
0.12741 0.042571 0.377
0.12679 0.042571 0.377
0.12618 0.042571 0.377
0.12556 0.042571 0.377
0.12495 0.042571 0.377
0.12433 0.042571 0.377
0.12372 0.042571 0.377
0.12311 0.042571 0.377
0.12249 0.042571 0.377
0.10321 0.045733 0.405
0.10255 0.045733 0.405
0.10189 0.045733 0.405
0.10123 0.045733 0.405
0.10057 0.045733 0.405
0.099906 0.045733 0.405
0.099246 0.045733 0.405
0.098586 0.045733 0.405
0.097926 0.045733 0.405
0.097266 0.045733 0.405
0.096606 0.045733 0.405
0.095946 0.045733 0.405
0.095286 0.045733 0.405
0.094626 0.045733 0.405
0.093966 0.045733 0.405
0.093536 0.045846 0.406
0.092875 0.045846 0.406
0.092213 0.045846 0.406
0.091551 0.045846 0.406
0.09089 0.045846 0.406
0.09045 0.045959 0.407
0.089787 0.045959 0.407
0.089124 0.045959 0.407
0.088678 0.046072 0.408
0.088013 0.046072 0.408
0.087348 0.046072 0.408
0.086896 0.046184 0.409
0.086229 0.046184 0.409
0.085772 0.046297 0.41
0.085103 0.046297 0.41
0.084641 0.04641 0.411
0.083971 0.04641 0.411
0.083302 0.04641 0.411
0.082833 0.046523 0.412
0.082161 0.046523 0.412
0.081688 0.046636 0.413
0.081015 0.046636 0.413
0.080342 0.046636 0.413
0.079861 0.046749 0.414
0.12898 0.042068 0.378
0.12836 0.042068 0.378
0.12741 0.041957 0.377
0.12679 0.041957 0.377
0.12618 0.041957 0.377
0.12556 0.041957 0.377
0.12495 0.041957 0.377
0.12433 0.041957 0.377
0.10321 0.045073 0.405
0.10255 0.045073 0.405
0.10189 0.045073 0.405
0.10123 0.045073 0.405
0.10057 0.045073 0.405
0.099906 0.045073 0.405
0.099246 0.045073 0.405
0.098586 0.045073 0.405
0.097926 0.045073 0.405
0.097266 0.045073 0.405
0.096606 0.045073 0.405
0.095946 0.045073 0.405
0.095286 0.045073 0.405
0.094626 0.045073 0.405
0.093966 0.045073 0.405
0.093536 0.045184 0.406
0.092875 0.045184 0.406
0.092213 0.045184 0.406
0.091551 0.045184 0.406
0.09089 0.045184 0.406
0.090228 0.045184 0.406
0.089787 0.045295 0.407
0.089124 0.045295 0.407
0.088678 0.045407 0.408
0.088013 0.045407 0.408
0.087348 0.045407 0.408
0.086896 0.045518 0.409
0.086229 0.045518 0.409
0.085772 0.045629 0.41
0.085103 0.045629 0.41
0.084641 0.045741 0.411
0.083971 0.045741 0.411
0.083302 0.045741 0.411
0.082833 0.045852 0.412
0.082161 0.045852 0.412
0.081688 0.045963 0.413
0.081015 0.045963 0.413
0.080342 0.045963 0.413
0.12898 0.041452 0.378
0.12836 0.041452 0.378
0.12741 0.041343 0.377
0.12679 0.041343 0.377
0.12618 0.041343 0.377
0.12556 0.041343 0.377
0.12495 0.041343 0.377
0.12433 0.041343 0.377
0.10255 0.044413 0.405
0.10189 0.044413 0.405
0.10123 0.044413 0.405
0.10057 0.044413 0.405
0.099906 0.044413 0.405
0.099246 0.044413 0.405
0.098586 0.044413 0.405
0.097926 0.044413 0.405
0.097266 0.044413 0.405
0.096606 0.044413 0.405
0.095946 0.044413 0.405
0.095286 0.044413 0.405
0.094626 0.044413 0.405
0.093966 0.044413 0.405
0.093306 0.044413 0.405
0.092646 0.044413 0.405
0.092213 0.044523 0.406
0.091551 0.044523 0.406
0.09089 0.044523 0.406
0.090228 0.044523 0.406
0.089787 0.044632 0.407
0.089124 0.044632 0.407
0.088678 0.044742 0.408
0.088013 0.044742 0.408
0.087348 0.044742 0.408
0.086896 0.044852 0.409
0.086229 0.044852 0.409
0.085772 0.044961 0.41
0.085103 0.044961 0.41
0.084641 0.045071 0.411
0.083971 0.045071 0.411
0.083302 0.045071 0.411
0.082833 0.045181 0.412
0.082161 0.045181 0.412
0.081688 0.04529 0.413
0.10123 0.043753 0.405
0.10057 0.043753 0.405
0.099906 0.043753 0.405
0.099246 0.043753 0.405
0.098586 0.043753 0.405
0.097926 0.043753 0.405
0.097266 0.043753 0.405
0.096606 0.043753 0.405
0.095946 0.043753 0.405
0.095286 0.043753 0.405
0.094626 0.043753 0.405
0.093966 0.043753 0.405
0.093306 0.043753 0.405
0.092646 0.043753 0.405
0.092213 0.043861 0.406
0.091551 0.043861 0.406
0.09089 0.043861 0.406
0.090228 0.043861 0.406
0.089787 0.043969 0.407
0.089124 0.043969 0.407
0.088678 0.044077 0.408
0.088013 0.044077 0.408
0.087348 0.044077 0.408
0.086896 0.044185 0.409
0.086229 0.044185 0.409
0.085772 0.044293 0.41
0.085103 0.044293 0.41
0.084641 0.044401 0.411
0.083971 0.044401 0.411
0.083302 0.044401 0.411
0.082833 0.044509 0.412
0.082161 0.044509 0.412
0.08149 0.044509 0.412
0.081015 0.044617 0.413
0.080342 0.044617 0.413
0.10123 0.043093 0.405
0.10057 0.043093 0.405
0.099906 0.043093 0.405
0.099246 0.043093 0.405
0.098586 0.043093 0.405
0.097926 0.043093 0.405
0.097266 0.043093 0.405
0.096606 0.043093 0.405
0.095946 0.043093 0.405
0.095286 0.043093 0.405
0.094626 0.043093 0.405
0.093966 0.043093 0.405
0.093306 0.043093 0.405
0.092646 0.043093 0.405
0.092213 0.0432 0.406
0.091551 0.0432 0.406
0.09089 0.0432 0.406
0.090228 0.0432 0.406
0.089787 0.043306 0.407
0.089124 0.043306 0.407
0.088678 0.043413 0.408
0.088013 0.043413 0.408
0.087348 0.043413 0.408
0.086896 0.043519 0.409
0.086229 0.043519 0.409
0.085772 0.043625 0.41
0.085103 0.043625 0.41
0.084435 0.043625 0.41
0.083971 0.043732 0.411
0.083302 0.043732 0.411
0.082632 0.043732 0.411
0.082161 0.043838 0.412
0.08149 0.043838 0.412
0.081015 0.043945 0.413
0.080342 0.043945 0.413
0.10015 0.042538 0.406
0.099246 0.042433 0.405
0.098586 0.042433 0.405
0.097926 0.042433 0.405
0.097266 0.042433 0.405
0.096845 0.042538 0.406
0.095946 0.042433 0.405
0.095286 0.042433 0.405
0.094626 0.042433 0.405
0.093966 0.042433 0.405
0.093536 0.042538 0.406
0.092875 0.042538 0.406
0.092213 0.042538 0.406
0.091551 0.042538 0.406
0.09089 0.042538 0.406
0.09045 0.042643 0.407
0.089787 0.042643 0.407
0.089124 0.042643 0.407
0.088678 0.042748 0.408
0.088013 0.042748 0.408
0.087348 0.042748 0.408
0.086896 0.042853 0.409
0.086229 0.042853 0.409
