ply
format ascii 1.0
comment Created by Open3D
element vertex 1885
property double x
property double y
property double z
end_header
0.017612 -0.019603 0.368
0.017012 -0.019603 0.368
0.016412 -0.019603 0.368
0.015812 -0.019603 0.368
0.015213 -0.019603 0.368
0.014613 -0.019603 0.368
0.014013 -0.019603 0.368
0.013414 -0.019603 0.368
0.012814 -0.019603 0.368
0.012214 -0.019603 0.368
0.011646 -0.019656 0.369
0.011045 -0.019656 0.369
0.010443 -0.019656 0.369
0.009842 -0.019656 0.369
0.00924 -0.019656 0.369
0.008663 -0.01971 0.37
0.00806 -0.01971 0.37
0.007477 -0.019763 0.371
0.006891 -0.019816 0.372
0.006284 -0.019816 0.372
0.005709 -0.019923 0.374
0.005099 -0.019923 0.374
0.004514 -0.020029 0.376
0.003932 -0.020189 0.379
0.003314 -0.020189 0.379
0.002123 -0.020615 0.387
0.001492 -0.020615 0.387
0.000859 -0.020562 0.386
0.00023 -0.020562 0.386
-0.000401 -0.020669 0.388
-0.001033 -0.020669 0.388
-0.001674 -0.020775 0.39
-0.00231 -0.020775 0.39
-0.002953 -0.020828 0.391
-0.003599 -0.020882 0.392
-0.004238 -0.020882 0.392
-0.004889 -0.020935 0.393
-0.00553 -0.020935 0.393
-0.00617 -0.020935 0.393
-0.006828 -0.020988 0.394
-0.00747 -0.020988 0.394
-0.008133 -0.021041 0.395
-0.008777 -0.021041 0.395
-0.009421 -0.021041 0.395
-0.010064 -0.021041 0.395
-0.010708 -0.021041 0.395
-0.011352 -0.021041 0.395
-0.012026 -0.021095 0.396
-0.012639 -0.021041 0.395
-0.013283 -0.021041 0.395
-0.013927 -0.021041 0.395
-0.01457 -0.021041 0.395
-0.015214 -0.021041 0.395
-0.015858 -0.021041 0.395
-0.016543 -0.021095 0.396
-0.017189 -0.021095 0.396
-0.017834 -0.021095 0.396
-0.018479 -0.021095 0.396
-0.019125 -0.021095 0.396
-0.01977 -0.021095 0.396
-0.020416 -0.021095 0.396
-0.021061 -0.021095 0.396
-0.021706 -0.021095 0.396
-0.022352 -0.021095 0.396
-0.022997 -0.021095 0.396
-0.023642 -0.021095 0.396
-0.024288 -0.021095 0.396
-0.024933 -0.021095 0.396
-0.025578 -0.021095 0.396
-0.026158 -0.021041 0.395
-0.026801 -0.021041 0.395
-0.027445 -0.021041 0.395
-0.028089 -0.021041 0.395
-0.028733 -0.021041 0.395
-0.029376 -0.021041 0.395
-0.03002 -0.021041 0.395
-0.030664 -0.021041 0.395
-0.031308 -0.021041 0.395
-0.031951 -0.021041 0.395
-0.032595 -0.021041 0.395
-0.033239 -0.021041 0.395
-0.033882 -0.021041 0.395
-0.034526 -0.021041 0.395
-0.03517 -0.021041 0.395
-0.035814 -0.021041 0.395
-0.036457 -0.021041 0.395
-0.037101 -0.021041 0.395
-0.03784 -0.021095 0.396
-0.038486 -0.021095 0.396
-0.039131 -0.021095 0.396
-0.039777 -0.021095 0.396
-0.040422 -0.021095 0.396
-0.041067 -0.021095 0.396
-0.041818 -0.021148 0.397
-0.042465 -0.021148 0.397
-0.043112 -0.021148 0.397
-0.043759 -0.021148 0.397
-0.044406 -0.021148 0.397
-0.045166 -0.021201 0.398
-0.045815 -0.021201 0.398
-0.046464 -0.021201 0.398
-0.047112 -0.021201 0.398
-0.047761 -0.021201 0.398
-0.048531 -0.021255 0.399
-0.049181 -0.021255 0.399
-0.049832 -0.021255 0.399
0.02622 -0.020367 0.371
0.025546 -0.020313 0.37
0.024943 -0.020313 0.37
0.02434 -0.020313 0.37
0.023673 -0.020258 0.369
0.023072 -0.020258 0.369
0.02247 -0.020258 0.369
0.02181 -0.020203 0.368
0.02121 -0.020203 0.368
0.02061 -0.020203 0.368
0.020011 -0.020203 0.368
0.019411 -0.020203 0.368
0.018811 -0.020203 0.368
0.018211 -0.020203 0.368
0.017612 -0.020203 0.368
0.017012 -0.020203 0.368
0.016412 -0.020203 0.368
0.015812 -0.020203 0.368
0.015213 -0.020203 0.368
0.014613 -0.020203 0.368
0.014013 -0.020203 0.368
0.013414 -0.020203 0.368
0.012814 -0.020203 0.368
0.012247 -0.020258 0.369
0.011646 -0.020258 0.369
0.011045 -0.020258 0.369
0.010443 -0.020258 0.369
0.009842 -0.020258 0.369
0.00924 -0.020258 0.369
0.008686 -0.020367 0.371
0.008081 -0.020367 0.371
0.007477 -0.020367 0.371
0.006909 -0.020477 0.373
0.006301 -0.020477 0.373
0.005739 -0.020642 0.376
0.005126 -0.020642 0.376
0.003953 -0.020916 0.381
0.003332 -0.020916 0.381
0.002123 -0.021246 0.387
0.001492 -0.021246 0.387
0.000861 -0.021246 0.387
0.000232 -0.021356 0.389
-0.000402 -0.021356 0.389
-0.001041 -0.021465 0.391
-0.001683 -0.02152 0.392
-0.002322 -0.02152 0.392
-0.002968 -0.021575 0.393
-0.003609 -0.021575 0.393
-0.00426 -0.02163 0.394
-0.004914 -0.021685 0.395
-0.005558 -0.021685 0.395
-0.006218 -0.02174 0.396
-0.006863 -0.02174 0.396
-0.007489 -0.021685 0.395
-0.008133 -0.021685 0.395
-0.008777 -0.021685 0.395
-0.009421 -0.021685 0.395
-0.010064 -0.021685 0.395
-0.010708 -0.021685 0.395
-0.011352 -0.021685 0.395
-0.012026 -0.02174 0.396
-0.012639 -0.021685 0.395
-0.013283 -0.021685 0.395
-0.013927 -0.021685 0.395
-0.01457 -0.021685 0.395
-0.015214 -0.021685 0.395
-0.015858 -0.021685 0.395
-0.016543 -0.02174 0.396
-0.017189 -0.02174 0.396
-0.017834 -0.02174 0.396
-0.018479 -0.02174 0.396
-0.019125 -0.02174 0.396
-0.01977 -0.02174 0.396
-0.020416 -0.02174 0.396
-0.021061 -0.02174 0.396
-0.021706 -0.02174 0.396
-0.022352 -0.02174 0.396
-0.022997 -0.02174 0.396
-0.023642 -0.02174 0.396
-0.024288 -0.02174 0.396
-0.024933 -0.02174 0.396
-0.025578 -0.02174 0.396
-0.026158 -0.021685 0.395
-0.026801 -0.021685 0.395
-0.027445 -0.021685 0.395
-0.028089 -0.021685 0.395
-0.028733 -0.021685 0.395
-0.029376 -0.021685 0.395
-0.03002 -0.021685 0.395
-0.030664 -0.021685 0.395
-0.031308 -0.021685 0.395
-0.031951 -0.021685 0.395
-0.032595 -0.021685 0.395
-0.033239 -0.021685 0.395
-0.033882 -0.021685 0.395
-0.034526 -0.021685 0.395
-0.03517 -0.021685 0.395
-0.035814 -0.021685 0.395
-0.036457 -0.021685 0.395
-0.037101 -0.021685 0.395
-0.03784 -0.02174 0.396
-0.038486 -0.02174 0.396
-0.039131 -0.02174 0.396
-0.039777 -0.02174 0.396
-0.040422 -0.02174 0.396
-0.041067 -0.02174 0.396
-0.041818 -0.021795 0.397
-0.042465 -0.021795 0.397
-0.043112 -0.021795 0.397
-0.043759 -0.021795 0.397
-0.044518 -0.02185 0.398
-0.045166 -0.02185 0.398
-0.045815 -0.02185 0.398
-0.046464 -0.02185 0.398
-0.047231 -0.021905 0.399
-0.047881 -0.021905 0.399
-0.048531 -0.021905 0.399
-0.049181 -0.021905 0.399
0.02622 -0.020972 0.371
0.025546 -0.020915 0.37
0.024943 -0.020915 0.37
0.02434 -0.020915 0.37
0.023673 -0.020859 0.369
0.023072 -0.020859 0.369
0.02247 -0.020859 0.369
0.02181 -0.020802 0.368
0.02121 -0.020802 0.368
0.02061 -0.020802 0.368
0.020011 -0.020802 0.368
0.019411 -0.020802 0.368
0.018811 -0.020802 0.368
0.018211 -0.020802 0.368
0.017612 -0.020802 0.368
0.017012 -0.020802 0.368
0.016412 -0.020802 0.368
0.015812 -0.020802 0.368
0.015213 -0.020802 0.368
0.014613 -0.020802 0.368
0.014013 -0.020802 0.368
0.013414 -0.020802 0.368
0.012814 -0.020802 0.368
0.012247 -0.020859 0.369
0.011646 -0.020859 0.369
0.011045 -0.020859 0.369
0.010443 -0.020859 0.369
0.009842 -0.020859 0.369
0.00924 -0.020859 0.369
0.008663 -0.020915 0.37
0.00806 -0.020915 0.37
0.007477 -0.020972 0.371
0.006909 -0.021085 0.373
0.006301 -0.021085 0.373
0.005739 -0.021255 0.376
0.005126 -0.021255 0.376
0.003953 -0.021537 0.381
0.003332 -0.021537 0.381
0.002123 -0.021876 0.387
0.001492 -0.021876 0.387
0.000861 -0.021876 0.387
0.000232 -0.021989 0.389
-0.000402 -0.021989 0.389
-0.001041 -0.022103 0.391
-0.001683 -0.022159 0.392
-0.002322 -0.022159 0.392
-0.002968 -0.022216 0.393
-0.003609 -0.022216 0.393
-0.00426 -0.022272 0.394
-0.004914 -0.022329 0.395
-0.005558 -0.022329 0.395
-0.006218 -0.022385 0.396
-0.006863 -0.022385 0.396
-0.007508 -0.022385 0.396
-0.008174 -0.022442 0.397
-0.008821 -0.022442 0.397
-0.009468 -0.022442 0.397
-0.010115 -0.022442 0.397
-0.010762 -0.022442 0.397
-0.011409 -0.022442 0.397
-0.012056 -0.022442 0.397
-0.012703 -0.022442 0.397
-0.01335 -0.022442 0.397
-0.013997 -0.022442 0.397
-0.014644 -0.022442 0.397
-0.015291 -0.022442 0.397
-0.015938 -0.022442 0.397
-0.016585 -0.022442 0.397
-0.017232 -0.022442 0.397
-0.017879 -0.022442 0.397
-0.018526 -0.022442 0.397
-0.019173 -0.022442 0.397
-0.01982 -0.022442 0.397
-0.020467 -0.022442 0.397
-0.021114 -0.022442 0.397
-0.021761 -0.022442 0.397
-0.022408 -0.022442 0.397
-0.023055 -0.022442 0.397
-0.023642 -0.022385 0.396
-0.024288 -0.022385 0.396
-0.024933 -0.022385 0.396
-0.025578 -0.022385 0.396
-0.026224 -0.022385 0.396
-0.026869 -0.022385 0.396
-0.027515 -0.022385 0.396
-0.02816 -0.022385 0.396
-0.028805 -0.022385 0.396
-0.029451 -0.022385 0.396
-0.030096 -0.022385 0.396
-0.030741 -0.022385 0.396
-0.031387 -0.022385 0.396
-0.032032 -0.022385 0.396
-0.032678 -0.022385 0.396
-0.033323 -0.022385 0.396
-0.033968 -0.022385 0.396
-0.034614 -0.022385 0.396
-0.035259 -0.022385 0.396
-0.035904 -0.022385 0.396
-0.03655 -0.022385 0.396
-0.037195 -0.022385 0.396
-0.037936 -0.022442 0.397
-0.038486 -0.022385 0.396
-0.039131 -0.022385 0.396
-0.039877 -0.022442 0.397
-0.040524 -0.022442 0.397
-0.041171 -0.022442 0.397
-0.041818 -0.022442 0.397
-0.042465 -0.022442 0.397
-0.043221 -0.022498 0.398
-0.043869 -0.022498 0.398
-0.044518 -0.022498 0.398
-0.045166 -0.022498 0.398
-0.045815 -0.022498 0.398
-0.046464 -0.022498 0.398
-0.047231 -0.022555 0.399
-0.047881 -0.022555 0.399
0.02622 -0.021576 0.371
0.025615 -0.021576 0.371
0.025011 -0.021576 0.371
0.02434 -0.021518 0.37
0.023737 -0.021518 0.37
0.023134 -0.021518 0.37
0.02247 -0.02146 0.369
0.021869 -0.02146 0.369
0.021268 -0.02146 0.369
0.020666 -0.02146 0.369
0.020065 -0.02146 0.369
0.019464 -0.02146 0.369
0.018862 -0.02146 0.369
0.018261 -0.02146 0.369
0.017612 -0.021402 0.368
0.017012 -0.021402 0.368
0.016457 -0.02146 0.369
0.015812 -0.021402 0.368
0.015213 -0.021402 0.368
0.014653 -0.02146 0.369
0.014051 -0.02146 0.369
0.01345 -0.02146 0.369
0.012849 -0.02146 0.369
0.012247 -0.02146 0.369
0.011646 -0.02146 0.369
0.011045 -0.02146 0.369
0.010443 -0.02146 0.369
0.009869 -0.021518 0.37
0.009266 -0.021518 0.37
0.008663 -0.021518 0.37
0.00806 -0.021518 0.37
0.007517 -0.021693 0.373
0.006946 -0.021809 0.375
0.006335 -0.021809 0.375
0.00577 -0.021984 0.378
0.005154 -0.021984 0.378
0.001508 -0.02274 0.391
0.00087 -0.02274 0.391
0.000234 -0.022856 0.393
-0.000406 -0.022856 0.393
-0.001049 -0.022914 0.394
-0.001696 -0.022972 0.395
-0.002339 -0.022972 0.395
-0.002991 -0.02303 0.396
-0.003636 -0.02303 0.396
-0.004292 -0.023089 0.397
-0.004952 -0.023147 0.398
-0.0056 -0.023147 0.398
-0.006249 -0.023147 0.398
-0.006898 -0.023147 0.398
-0.007565 -0.023205 0.399
-0.008215 -0.023205 0.399
-0.008866 -0.023205 0.399
-0.009516 -0.023205 0.399
-0.010166 -0.023205 0.399
-0.010816 -0.023205 0.399
-0.011467 -0.023205 0.399
-0.012117 -0.023205 0.399
-0.012767 -0.023205 0.399
-0.013417 -0.023205 0.399
-0.014068 -0.023205 0.399
-0.014718 -0.023205 0.399
-0.015368 -0.023205 0.399
-0.016018 -0.023205 0.399
-0.016627 -0.023147 0.398
-0.017276 -0.023147 0.398
-0.017924 -0.023147 0.398
-0.018573 -0.023147 0.398
-0.019221 -0.023147 0.398
-0.01987 -0.023147 0.398
-0.020519 -0.023147 0.398
-0.021167 -0.023147 0.398
-0.021816 -0.023147 0.398
-0.022465 -0.023147 0.398
-0.023113 -0.023147 0.398
-0.023702 -0.023089 0.397
-0.024349 -0.023089 0.397
-0.024996 -0.023089 0.397
-0.025643 -0.023089 0.397
-0.02629 -0.023089 0.397
-0.026937 -0.023089 0.397
-0.027584 -0.023089 0.397
-0.028231 -0.023089 0.397
-0.028878 -0.023089 0.397
-0.029525 -0.023089 0.397
-0.030172 -0.023089 0.397
-0.030819 -0.023089 0.397
-0.031466 -0.023089 0.397
-0.032113 -0.023089 0.397
-0.03276 -0.023089 0.397
-0.033323 -0.02303 0.396
-0.033968 -0.02303 0.396
-0.034614 -0.02303 0.396
-0.035259 -0.02303 0.396
-0.035904 -0.02303 0.396
-0.03655 -0.02303 0.396
-0.037195 -0.02303 0.396
-0.037936 -0.023089 0.397
-0.038486 -0.02303 0.396
-0.039131 -0.02303 0.396
-0.039877 -0.023089 0.397
-0.040524 -0.023089 0.397
-0.041171 -0.023089 0.397
-0.041818 -0.023089 0.397
-0.042465 -0.023089 0.397
-0.043221 -0.023147 0.398
-0.043869 -0.023147 0.398
-0.044518 -0.023147 0.398
-0.045166 -0.023147 0.398
-0.045815 -0.023147 0.398
-0.046464 -0.023147 0.398
-0.047231 -0.023205 0.399
-0.047881 -0.023205 0.399
0.025615 -0.022181 0.371
0.025011 -0.022181 0.371
0.02434 -0.022121 0.37
0.023737 -0.022121 0.37
0.023134 -0.022121 0.37
0.022531 -0.022121 0.37
0.021869 -0.022061 0.369
0.021268 -0.022061 0.369
0.020666 -0.022061 0.369
0.020065 -0.022061 0.369
0.019464 -0.022061 0.369
0.018862 -0.022061 0.369
0.018261 -0.022061 0.369
0.01766 -0.022061 0.369
0.017058 -0.022061 0.369
0.016457 -0.022061 0.369
0.015855 -0.022061 0.369
0.015254 -0.022061 0.369
0.014653 -0.022061 0.369
0.014051 -0.022061 0.369
0.01345 -0.022061 0.369
0.012849 -0.022061 0.369
0.012247 -0.022061 0.369
0.011646 -0.022061 0.369
0.011045 -0.022061 0.369
0.010471 -0.022121 0.37
0.009869 -0.022121 0.37
0.009266 -0.022121 0.37
0.008686 -0.022181 0.371
0.008081 -0.022181 0.371
0.006965 -0.02248 0.376
0.006352 -0.02248 0.376
0.001508 -0.023377 0.391
0.00087 -0.023377 0.391
0.000234 -0.023496 0.393
-0.000406 -0.023496 0.393
-0.001049 -0.023556 0.394
-0.001696 -0.023616 0.395
-0.002339 -0.023616 0.395
-0.002991 -0.023676 0.396
-0.003636 -0.023676 0.396
-0.004292 -0.023735 0.397
-0.004952 -0.023795 0.398
-0.0056 -0.023795 0.398
-0.006249 -0.023795 0.398
-0.006898 -0.023795 0.398
-0.007565 -0.023855 0.399
-0.008215 -0.023855 0.399
-0.008866 -0.023855 0.399
-0.009516 -0.023855 0.399
-0.010166 -0.023855 0.399
-0.010816 -0.023855 0.399
-0.011467 -0.023855 0.399
-0.012117 -0.023855 0.399
-0.012767 -0.023855 0.399
-0.013417 -0.023855 0.399
-0.014068 -0.023855 0.399
-0.014718 -0.023855 0.399
-0.015368 -0.023855 0.399
-0.016018 -0.023855 0.399
-0.016627 -0.023795 0.398
-0.017276 -0.023795 0.398
-0.017924 -0.023795 0.398
-0.018573 -0.023795 0.398
-0.019221 -0.023795 0.398
-0.01987 -0.023795 0.398
-0.020519 -0.023795 0.398
-0.021167 -0.023795 0.398
-0.021816 -0.023795 0.398
-0.022465 -0.023795 0.398
-0.023113 -0.023795 0.398
-0.023702 -0.023735 0.397
-0.024349 -0.023735 0.397
-0.024996 -0.023735 0.397
-0.025643 -0.023735 0.397
-0.02629 -0.023735 0.397
-0.026937 -0.023735 0.397
-0.027584 -0.023735 0.397
-0.028231 -0.023735 0.397
-0.028878 -0.023735 0.397
-0.029525 -0.023735 0.397
-0.030172 -0.023735 0.397
-0.030819 -0.023735 0.397
-0.031466 -0.023735 0.397
-0.032113 -0.023735 0.397
-0.03276 -0.023735 0.397
-0.033407 -0.023735 0.397
-0.034054 -0.023735 0.397
-0.034701 -0.023735 0.397
-0.035348 -0.023735 0.397
-0.035995 -0.023735 0.397
-0.036642 -0.023735 0.397
-0.037289 -0.023735 0.397
-0.038032 -0.023795 0.398
-0.038583 -0.023735 0.397
-0.03923 -0.023735 0.397
-0.039977 -0.023795 0.398
-0.040626 -0.023795 0.398
-0.041275 -0.023795 0.398
-0.041923 -0.023795 0.398
-0.042572 -0.023795 0.398
-0.043221 -0.023795 0.398
-0.043869 -0.023795 0.398
-0.044518 -0.023795 0.398
-0.04528 -0.023855 0.399
-0.04593 -0.023855 0.399
-0.04658 -0.023855 0.399
0.025615 -0.022785 0.371
0.025011 -0.022785 0.371
0.02434 -0.022724 0.37
0.023737 -0.022724 0.37
0.023134 -0.022724 0.37
0.022531 -0.022724 0.37
0.021869 -0.022663 0.369
0.021268 -0.022663 0.369
0.020666 -0.022663 0.369
0.020065 -0.022663 0.369
0.019464 -0.022663 0.369
0.018862 -0.022663 0.369
0.018261 -0.022663 0.369
0.01766 -0.022663 0.369
0.017058 -0.022663 0.369
0.016457 -0.022663 0.369
0.015855 -0.022663 0.369
0.015254 -0.022663 0.369
0.014653 -0.022663 0.369
0.014051 -0.022663 0.369
0.01345 -0.022663 0.369
0.012849 -0.022663 0.369
0.012247 -0.022663 0.369
0.011646 -0.022663 0.369
0.011045 -0.022663 0.369
0.010471 -0.022724 0.37
0.009869 -0.022724 0.37
0.009266 -0.022724 0.37
0.008686 -0.022785 0.371
0.008081 -0.022785 0.371
0.006965 -0.023092 0.376
0.006352 -0.023092 0.376
0.003454 -0.024259 0.395
0.00281 -0.024259 0.395
0.002178 -0.024382 0.397
0.001523 -0.024259 0.395
0.000879 -0.024259 0.395
0.000237 -0.024382 0.397
-0.00041 -0.024382 0.397
-0.00106 -0.024444 0.398
-0.001709 -0.024444 0.398
-0.002357 -0.024444 0.398
-0.003013 -0.024505 0.399
-0.003664 -0.024505 0.399
-0.004314 -0.024505 0.399
-0.004977 -0.024566 0.4
-0.005628 -0.024566 0.4
-0.00628 -0.024566 0.4
-0.006932 -0.024566 0.4
-0.007603 -0.024628 0.401
-0.008257 -0.024628 0.401
-0.00891 -0.024628 0.401
-0.009564 -0.024628 0.401
-0.010217 -0.024628 0.401
-0.010871 -0.024628 0.401
-0.011524 -0.024628 0.401
-0.012178 -0.024628 0.401
-0.012831 -0.024628 0.401
-0.013485 -0.024628 0.401
-0.014103 -0.024566 0.4
-0.014755 -0.024566 0.4
-0.015407 -0.024566 0.4
-0.016059 -0.024566 0.4
-0.01671 -0.024566 0.4
-0.017362 -0.024566 0.4
-0.018014 -0.024566 0.4
-0.018666 -0.024566 0.4
-0.019318 -0.024566 0.4
-0.01997 -0.024566 0.4
-0.020622 -0.024566 0.4
-0.02122 -0.024505 0.399
-0.021871 -0.024505 0.399
-0.022521 -0.024505 0.399
-0.023171 -0.024505 0.399
-0.023822 -0.024505 0.399
-0.024472 -0.024505 0.399
-0.025059 -0.024444 0.398
-0.025708 -0.024444 0.398
-0.026356 -0.024444 0.398
-0.027005 -0.024444 0.398
-0.027654 -0.024444 0.398
-0.028302 -0.024444 0.398
-0.028951 -0.024444 0.398
-0.029599 -0.024444 0.398
-0.030248 -0.024444 0.398
-0.030897 -0.024444 0.398
-0.031545 -0.024444 0.398
-0.032194 -0.024444 0.398
-0.032843 -0.024444 0.398
-0.033491 -0.024444 0.398
-0.03414 -0.024444 0.398
-0.034788 -0.024444 0.398
-0.035437 -0.024444 0.398
-0.036086 -0.024444 0.398
-0.036734 -0.024444 0.398
-0.037383 -0.024444 0.398
-0.038032 -0.024444 0.398
-0.03868 -0.024444 0.398
-0.039329 -0.024444 0.398
-0.040078 -0.024505 0.399
-0.040626 -0.024444 0.398
-0.041275 -0.024444 0.398
-0.041923 -0.024444 0.398
-0.042572 -0.024444 0.398
-0.043329 -0.024505 0.399
-0.043979 -0.024505 0.399
-0.04463 -0.024505 0.399
0.024406 -0.02339 0.371
0.023737 -0.023327 0.37
0.023134 -0.023327 0.37
0.022531 -0.023327 0.37
0.021869 -0.023264 0.369
0.021268 -0.023264 0.369
0.020666 -0.023264 0.369
0.020065 -0.023264 0.369
0.019464 -0.023264 0.369
0.018862 -0.023264 0.369
0.018261 -0.023264 0.369
0.01766 -0.023264 0.369
0.017058 -0.023264 0.369
0.016457 -0.023264 0.369
0.015855 -0.023264 0.369
0.015254 -0.023264 0.369
0.014653 -0.023264 0.369
0.014051 -0.023264 0.369
0.01345 -0.023264 0.369
0.012849 -0.023264 0.369
0.012247 -0.023264 0.369
0.011646 -0.023264 0.369
0.011045 -0.023264 0.369
0.010471 -0.023327 0.37
0.009869 -0.023327 0.37
0.009266 -0.023327 0.37
0.003454 -0.024903 0.395
0.00281 -0.024903 0.395
0.002178 -0.025029 0.397
0.001531 -0.025029 0.397
0.000888 -0.025155 0.399
0.000238 -0.025155 0.399
-0.000414 -0.025281 0.401
-0.001068 -0.025281 0.401
-0.001721 -0.025281 0.401
-0.002375 -0.025281 0.401
-0.003028 -0.025281 0.401
-0.003682 -0.025281 0.401
-0.004335 -0.025281 0.401
-0.004989 -0.025281 0.401
-0.005643 -0.025281 0.401
-0.006312 -0.025344 0.402
-0.006967 -0.025344 0.402
-0.007622 -0.025344 0.402
-0.008277 -0.025344 0.402
-0.008932 -0.025344 0.402
-0.009587 -0.025344 0.402
-0.010243 -0.025344 0.402
-0.010898 -0.025344 0.402
-0.011553 -0.025344 0.402
-0.012208 -0.025344 0.402
-0.012863 -0.025344 0.402
-0.013518 -0.025344 0.402
-0.014173 -0.025344 0.402
-0.014829 -0.025344 0.402
-0.015484 -0.025344 0.402
-0.016139 -0.025344 0.402
-0.016794 -0.025344 0.402
-0.017406 -0.025281 0.401
-0.018059 -0.025281 0.401
-0.018713 -0.025281 0.401
-0.019366 -0.025281 0.401
-0.02002 -0.025281 0.401
-0.020673 -0.025281 0.401
-0.021327 -0.025281 0.401
-0.021926 -0.025218 0.4
-0.022577 -0.025218 0.4
-0.023171 -0.025155 0.399
-0.023822 -0.025155 0.399
-0.024472 -0.025155 0.399
-0.025059 -0.025092 0.398
-0.025708 -0.025092 0.398
-0.026356 -0.025092 0.398
-0.027005 -0.025092 0.398
-0.027654 -0.025092 0.398
-0.028302 -0.025092 0.398
-0.028951 -0.025092 0.398
-0.029599 -0.025092 0.398
-0.030248 -0.025092 0.398
-0.030897 -0.025092 0.398
-0.031545 -0.025092 0.398
-0.032194 -0.025092 0.398
-0.032843 -0.025092 0.398
-0.033491 -0.025092 0.398
-0.03414 -0.025092 0.398
-0.034788 -0.025092 0.398
-0.035437 -0.025092 0.398
-0.036086 -0.025092 0.398
-0.036734 -0.025092 0.398
-0.037383 -0.025092 0.398
-0.038032 -0.025092 0.398
-0.03868 -0.025092 0.398
-0.039329 -0.025092 0.398
-0.040078 -0.025155 0.399
-0.040626 -0.025092 0.398
-0.041275 -0.025092 0.398
-0.041923 -0.025092 0.398
-0.042572 -0.025092 0.398
-0.043329 -0.025155 0.399
-0.043979 -0.025155 0.399
-0.04463 -0.025155 0.399
0.023801 -0.023994 0.371
0.023197 -0.023994 0.371
0.022592 -0.023994 0.371
0.021928 -0.02393 0.37
0.021325 -0.02393 0.37
0.020666 -0.023865 0.369
0.020065 -0.023865 0.369
0.019464 -0.023865 0.369
0.018862 -0.023865 0.369
0.01831 -0.02393 0.37
0.01766 -0.023865 0.369
0.017058 -0.023865 0.369
0.016457 -0.023865 0.369
0.015855 -0.023865 0.369
0.015254 -0.023865 0.369
0.014653 -0.023865 0.369
0.014051 -0.023865 0.369
0.01345 -0.023865 0.369
0.012849 -0.023865 0.369
0.012247 -0.023865 0.369
0.011646 -0.023865 0.369
0.011045 -0.023865 0.369
0.010471 -0.02393 0.37
0.009869 -0.02393 0.37
0.009266 -0.02393 0.37
0.006673 -0.025547 0.395
0.006029 -0.025547 0.395
0.005413 -0.025676 0.397
0.004766 -0.025676 0.397
0.004139 -0.025805 0.399
0.003454 -0.025547 0.395
0.00281 -0.025547 0.395
0.002178 -0.025676 0.397
0.001531 -0.025676 0.397
0.000888 -0.025805 0.399
0.000238 -0.025805 0.399
-0.000414 -0.025935 0.401
-0.001068 -0.025935 0.401
-0.001721 -0.025935 0.401
-0.002375 -0.025935 0.401
-0.003028 -0.025935 0.401
-0.003682 -0.025935 0.401
-0.004335 -0.025935 0.401
-0.004989 -0.025935 0.401
-0.005643 -0.025935 0.401
-0.006312 -0.025999 0.402
-0.006967 -0.025999 0.402
-0.007622 -0.025999 0.402
-0.008277 -0.025999 0.402
-0.008932 -0.025999 0.402
-0.009587 -0.025999 0.402
-0.010243 -0.025999 0.402
-0.010898 -0.025999 0.402
-0.011553 -0.025999 0.402
-0.012208 -0.025999 0.402
-0.012863 -0.025999 0.402
-0.013518 -0.025999 0.402
-0.014173 -0.025999 0.402
-0.014829 -0.025999 0.402
-0.015484 -0.025999 0.402
-0.016139 -0.025999 0.402
-0.016794 -0.025999 0.402
-0.017406 -0.025935 0.401
-0.018059 -0.025935 0.401
-0.018713 -0.025935 0.401
-0.019366 -0.025935 0.401
-0.02002 -0.025935 0.401
-0.020673 -0.025935 0.401
-0.021327 -0.025935 0.401
-0.021926 -0.02587 0.4
-0.022577 -0.02587 0.4
-0.023229 -0.02587 0.4
-0.023881 -0.02587 0.4
-0.024533 -0.02587 0.4
-0.025185 -0.02587 0.4
-0.025837 -0.02587 0.4
-0.026489 -0.02587 0.4
-0.027141 -0.02587 0.4
-0.027793 -0.02587 0.4
-0.028444 -0.02587 0.4
-0.029096 -0.02587 0.4
-0.029748 -0.02587 0.4
-0.0304 -0.02587 0.4
-0.031052 -0.02587 0.4
-0.031704 -0.02587 0.4
-0.032356 -0.02587 0.4
-0.033008 -0.02587 0.4
-0.033659 -0.02587 0.4
-0.034311 -0.02587 0.4
-0.034963 -0.02587 0.4
-0.035615 -0.02587 0.4
-0.036267 -0.02587 0.4
-0.036919 -0.02587 0.4
-0.037571 -0.02587 0.4
-0.038223 -0.02587 0.4
-0.038777 -0.025805 0.399
-0.039428 -0.025805 0.399
-0.040078 -0.025805 0.399
-0.040728 -0.025805 0.399
-0.041378 -0.025805 0.399
-0.042029 -0.025805 0.399
-0.042679 -0.025805 0.399
0.023801 -0.024599 0.371
0.023197 -0.024599 0.371
0.022592 -0.024599 0.371
0.021928 -0.024533 0.37
0.021325 -0.024533 0.37
0.020666 -0.024466 0.369
0.020065 -0.024466 0.369
0.019464 -0.024466 0.369
0.018862 -0.024466 0.369
0.01831 -0.024533 0.37
0.01766 -0.024466 0.369
0.017058 -0.024466 0.369
0.016457 -0.024466 0.369
0.015855 -0.024466 0.369
0.015254 -0.024466 0.369
0.014653 -0.024466 0.369
0.014051 -0.024466 0.369
0.01345 -0.024466 0.369
0.012849 -0.024466 0.369
0.01228 -0.024533 0.37
0.011677 -0.024533 0.37
0.011074 -0.024533 0.37
0.006673 -0.02619 0.395
0.006029 -0.02619 0.395
0.005413 -0.026323 0.397
0.004766 -0.026323 0.397
0.004139 -0.026455 0.399
0.003489 -0.026455 0.399
0.002853 -0.026588 0.401
0.0022 -0.026588 0.401
0.001546 -0.026588 0.401
0.000895 -0.026654 0.402
0.00024 -0.026654 0.402
-0.000415 -0.026654 0.402
-0.001071 -0.026654 0.402
-0.001726 -0.026654 0.402
-0.002381 -0.026654 0.402
-0.003036 -0.026654 0.402
-0.003691 -0.026654 0.402
-0.004346 -0.026654 0.402
-0.005001 -0.026654 0.402
-0.005657 -0.026654 0.402
-0.006312 -0.026654 0.402
-0.006967 -0.026654 0.402
-0.007641 -0.026721 0.403
-0.008298 -0.026721 0.403
-0.008955 -0.026721 0.403
-0.009611 -0.026721 0.403
-0.010268 -0.026721 0.403
-0.010925 -0.026721 0.403
-0.011582 -0.026721 0.403
-0.012238 -0.026721 0.403
-0.012895 -0.026721 0.403
-0.013552 -0.026721 0.403
-0.014209 -0.026721 0.403
-0.014865 -0.026721 0.403
-0.015522 -0.026721 0.403
-0.016179 -0.026721 0.403
-0.016836 -0.026721 0.403
-0.017493 -0.026721 0.403
-0.018149 -0.026721 0.403
-0.018806 -0.026721 0.403
-0.019415 -0.026654 0.402
-0.02007 -0.026654 0.402
-0.020725 -0.026654 0.402
-0.02138 -0.026654 0.402
-0.022035 -0.026654 0.402
-0.02269 -0.026654 0.402
-0.023345 -0.026654 0.402
-0.024001 -0.026654 0.402
-0.024656 -0.026654 0.402
-0.025248 -0.026588 0.401
-0.025901 -0.026588 0.401
-0.026555 -0.026588 0.401
-0.027208 -0.026588 0.401
-0.027862 -0.026588 0.401
-0.028516 -0.026588 0.401
-0.029169 -0.026588 0.401
-0.029823 -0.026588 0.401
-0.030476 -0.026588 0.401
-0.03113 -0.026588 0.401
-0.031783 -0.026588 0.401
-0.032437 -0.026588 0.401
-0.033173 -0.026654 0.402
-0.033744 -0.026588 0.401
-0.034397 -0.026588 0.401
-0.035051 -0.026588 0.401
-0.035704 -0.026588 0.401
-0.036358 -0.026588 0.401
-0.037011 -0.026588 0.401
-0.037665 -0.026588 0.401
-0.038318 -0.026588 0.401
-0.038972 -0.026588 0.401
-0.039526 -0.026522 0.4
-0.040178 -0.026522 0.4
-0.04083 -0.026522 0.4
-0.041378 -0.026455 0.399
-0.042029 -0.026455 0.399
-0.042679 -0.026455 0.399
0.022592 -0.025203 0.371
0.021928 -0.025135 0.37
0.021325 -0.025135 0.37
0.020722 -0.025135 0.37
0.020119 -0.025135 0.37
0.019516 -0.025135 0.37
0.018913 -0.025135 0.37
0.01831 -0.025135 0.37
0.017707 -0.025135 0.37
0.017104 -0.025135 0.37
0.016501 -0.025135 0.37
0.015898 -0.025135 0.37
0.015295 -0.025135 0.37
0.014692 -0.025135 0.37
0.014089 -0.025135 0.37
0.013486 -0.025135 0.37
0.012883 -0.025135 0.37
0.006774 -0.027241 0.401
0.006121 -0.027241 0.401
0.005467 -0.027241 0.401
0.004862 -0.027513 0.405
0.004202 -0.027513 0.405
0.003542 -0.027513 0.405
0.002882 -0.027513 0.405
0.002222 -0.027513 0.405
0.001558 -0.027445 0.404
0.000899 -0.027445 0.404
0.000241 -0.027445 0.404
-0.000416 -0.027377 0.403
-0.001073 -0.027377 0.403
-0.00173 -0.027377 0.403
-0.002387 -0.027377 0.403
-0.003044 -0.027377 0.403
-0.0037 -0.027377 0.403
-0.004357 -0.027377 0.403
-0.005014 -0.027377 0.403
-0.005671 -0.027377 0.403
-0.006327 -0.027377 0.403
-0.006984 -0.027377 0.403
-0.007641 -0.027377 0.403
-0.008298 -0.027377 0.403
-0.008955 -0.027377 0.403
-0.009635 -0.027445 0.404
-0.010294 -0.027445 0.404
-0.010952 -0.027445 0.404
-0.01161 -0.027445 0.404
-0.012238 -0.027377 0.403
-0.012895 -0.027377 0.403
-0.013552 -0.027377 0.403
-0.014209 -0.027377 0.403
-0.014865 -0.027377 0.403
-0.015522 -0.027377 0.403
-0.016179 -0.027377 0.403
-0.016836 -0.027377 0.403
-0.017493 -0.027377 0.403
-0.018149 -0.027377 0.403
-0.018806 -0.027377 0.403
-0.019415 -0.027309 0.402
-0.02007 -0.027309 0.402
-0.020725 -0.027309 0.402
-0.02138 -0.027309 0.402
-0.022035 -0.027309 0.402
-0.02269 -0.027309 0.402
-0.023345 -0.027309 0.402
-0.024001 -0.027309 0.402
-0.024656 -0.027309 0.402
-0.025248 -0.027241 0.401
-0.025901 -0.027241 0.401
-0.026555 -0.027241 0.401
-0.027208 -0.027241 0.401
-0.027862 -0.027241 0.401
-0.028516 -0.027241 0.401
-0.029169 -0.027241 0.401
-0.029823 -0.027241 0.401
-0.030476 -0.027241 0.401
-0.03113 -0.027241 0.401
-0.031783 -0.027241 0.401
-0.032437 -0.027241 0.401
-0.033173 -0.027309 0.402
-0.033744 -0.027241 0.401
-0.034397 -0.027241 0.401
-0.035051 -0.027241 0.401
-0.035704 -0.027241 0.401
-0.036358 -0.027241 0.401
-0.037011 -0.027241 0.401
-0.037665 -0.027241 0.401
-0.038318 -0.027241 0.401
-0.038972 -0.027241 0.401
-0.039526 -0.027173 0.4
-0.040178 -0.027173 0.4
-0.04083 -0.027173 0.4
-0.041378 -0.027105 0.399
-0.042029 -0.027105 0.399
-0.042679 -0.027105 0.399
0.021928 -0.025738 0.37
0.021325 -0.025738 0.37
0.020722 -0.025738 0.37
0.020119 -0.025738 0.37
0.019516 -0.025738 0.37
0.018913 -0.025738 0.37
0.01831 -0.025738 0.37
0.017707 -0.025738 0.37
0.017104 -0.025738 0.37
0.016501 -0.025738 0.37
0.015898 -0.025738 0.37
0.015295 -0.025738 0.37
0.014692 -0.025738 0.37
0.014089 -0.025738 0.37
0.013486 -0.025738 0.37
0.012883 -0.025738 0.37
0.006774 -0.027895 0.401
0.006121 -0.027895 0.401
0.005467 -0.027895 0.401
0.004862 -0.028173 0.405
0.004202 -0.028173 0.405
0.003542 -0.028173 0.405
0.002882 -0.028173 0.405
0.002222 -0.028173 0.405
0.001558 -0.028103 0.404
0.000899 -0.028103 0.404
0.000241 -0.028103 0.404
-0.000416 -0.028034 0.403
-0.001073 -0.028034 0.403
-0.00173 -0.028034 0.403
-0.002387 -0.028034 0.403
-0.003044 -0.028034 0.403
-0.0037 -0.028034 0.403
-0.004357 -0.028034 0.403
-0.005014 -0.028034 0.403
-0.005671 -0.028034 0.403
-0.006327 -0.028034 0.403
-0.006984 -0.028034 0.403
-0.007641 -0.028034 0.403
-0.008298 -0.028034 0.403
-0.008955 -0.028034 0.403
-0.009635 -0.028103 0.404
-0.010294 -0.028103 0.404
-0.010952 -0.028103 0.404
-0.01161 -0.028103 0.404
-0.012269 -0.028103 0.404
-0.012927 -0.028103 0.404
-0.013586 -0.028103 0.404
-0.014244 -0.028103 0.404
-0.014902 -0.028103 0.404
-0.015561 -0.028103 0.404
-0.016219 -0.028103 0.404
-0.016878 -0.028103 0.404
-0.017536 -0.028103 0.404
-0.018194 -0.028103 0.404
-0.018853 -0.028103 0.404
-0.019511 -0.028103 0.404
-0.02017 -0.028103 0.404
-0.020828 -0.028103 0.404
-0.021486 -0.028103 0.404
-0.022145 -0.028103 0.404
-0.022747 -0.028034 0.403
-0.023404 -0.028034 0.403
-0.02406 -0.028034 0.403
-0.024717 -0.028034 0.403
-0.025374 -0.028034 0.403
-0.026031 -0.028034 0.403
-0.026687 -0.028034 0.403
-0.027344 -0.028034 0.403
-0.028001 -0.028034 0.403
-0.028658 -0.028034 0.403
-0.029314 -0.028034 0.403
-0.029971 -0.028034 0.403
-0.030628 -0.028034 0.403
-0.031285 -0.028034 0.403
-0.031942 -0.028034 0.403
-0.032598 -0.028034 0.403
-0.033255 -0.028034 0.403
-0.033912 -0.028034 0.403
-0.034569 -0.028034 0.403
-0.035225 -0.028034 0.403
-0.035882 -0.028034 0.403
-0.036539 -0.028034 0.403
-0.037103 -0.027964 0.402
-0.037759 -0.027964 0.402
-0.038414 -0.027964 0.402
-0.038972 -0.027895 0.401
-0.039625 -0.027895 0.401
0.019516 -0.026341 0.37
0.018913 -0.026341 0.37
0.01831 -0.026341 0.37
0.017707 -0.026341 0.37
0.004212 -0.028904 0.406
0.00355 -0.028904 0.406
0.002889 -0.028904 0.406
0.002222 -0.028833 0.405
0.001562 -0.028833 0.405
0.000902 -0.028833 0.405
0.000241 -0.028833 0.405
-0.000418 -0.028762 0.404
-0.001076 -0.028762 0.404
-0.00173 -0.02869 0.403
-0.002387 -0.02869 0.403
-0.003044 -0.02869 0.403
-0.0037 -0.02869 0.403
-0.004357 -0.02869 0.403
-0.005014 -0.02869 0.403
-0.005685 -0.028762 0.404
-0.006343 -0.028762 0.404
-0.007002 -0.028762 0.404
-0.00766 -0.028762 0.404
-0.008318 -0.028762 0.404
-0.008977 -0.028762 0.404
-0.009635 -0.028762 0.404
-0.010294 -0.028762 0.404
-0.010979 -0.028833 0.405
-0.011639 -0.028833 0.405
-0.012299 -0.028833 0.405
-0.012959 -0.028833 0.405
-0.013619 -0.028833 0.405
-0.014279 -0.028833 0.405
-0.014976 -0.028904 0.406
-0.015638 -0.028904 0.406
-0.016299 -0.028904 0.406
-0.016961 -0.028904 0.406
-0.017623 -0.028904 0.406
-0.018284 -0.028904 0.406
-0.018946 -0.028904 0.406
-0.019608 -0.028904 0.406
-0.020269 -0.028904 0.406
-0.020931 -0.028904 0.406
-0.02154 -0.028833 0.405
-0.0222 -0.028833 0.405
-0.02286 -0.028833 0.405
-0.02352 -0.028833 0.405
-0.02418 -0.028833 0.405
-0.02484 -0.028833 0.405
-0.0255 -0.028833 0.405
-0.02616 -0.028833 0.405
-0.02682 -0.028833 0.405
-0.02748 -0.028833 0.405
-0.02814 -0.028833 0.405
-0.0288 -0.028833 0.405
-0.02946 -0.028833 0.405
-0.03012 -0.028833 0.405
-0.03078 -0.028833 0.405
-0.03144 -0.028833 0.405
-0.0321 -0.028833 0.405
-0.03276 -0.028833 0.405
-0.03342 -0.028833 0.405
-0.03408 -0.028833 0.405
-0.03474 -0.028833 0.405
-0.035313 -0.028762 0.404
-0.035971 -0.028762 0.404
-0.03663 -0.028762 0.404
-0.037288 -0.028762 0.404
-0.037946 -0.028762 0.404
-0.038972 -0.028548 0.401
-0.039625 -0.028548 0.401
0.004212 -0.029565 0.406
0.00355 -0.029565 0.406
0.002889 -0.029565 0.406
0.002227 -0.029565 0.406
0.001562 -0.029493 0.405
0.000902 -0.029493 0.405
0.000241 -0.029493 0.405
-0.000418 -0.02942 0.404
-0.001076 -0.02942 0.404
-0.00173 -0.029347 0.403
-0.002387 -0.029347 0.403
-0.003044 -0.029347 0.403
-0.0037 -0.029347 0.403
-0.004357 -0.029347 0.403
-0.005014 -0.029347 0.403
-0.005685 -0.02942 0.404
-0.006343 -0.02942 0.404
-0.007002 -0.02942 0.404
-0.00766 -0.02942 0.404
-0.008318 -0.02942 0.404
-0.008977 -0.02942 0.404
-0.009635 -0.02942 0.404
-0.010294 -0.02942 0.404
-0.010979 -0.029493 0.405
-0.011639 -0.029493 0.405
-0.012299 -0.029493 0.405
-0.012959 -0.029493 0.405
-0.013619 -0.029493 0.405
-0.014279 -0.029493 0.405
-0.014976 -0.029565 0.406
-0.015638 -0.029565 0.406
-0.016299 -0.029565 0.406
-0.016961 -0.029565 0.406
-0.017623 -0.029565 0.406
-0.018284 -0.029565 0.406
-0.018946 -0.029565 0.406
-0.019608 -0.029565 0.406
-0.020269 -0.029565 0.406
-0.020931 -0.029565 0.406
-0.02154 -0.029493 0.405
-0.0222 -0.029493 0.405
-0.02286 -0.029493 0.405
-0.02352 -0.029493 0.405
-0.02418 -0.029493 0.405
-0.02484 -0.029493 0.405
-0.0255 -0.029493 0.405
-0.02616 -0.029493 0.405
-0.02682 -0.029493 0.405
-0.02748 -0.029493 0.405
-0.02814 -0.029493 0.405
-0.0288 -0.029493 0.405
-0.02946 -0.029493 0.405
-0.03012 -0.029493 0.405
-0.03078 -0.029493 0.405
-0.03144 -0.029493 0.405
-0.0321 -0.029493 0.405
-0.03276 -0.029493 0.405
-0.03342 -0.029493 0.405
-0.03408 -0.029493 0.405
-0.03474 -0.029493 0.405
-0.035313 -0.02942 0.404
-0.035971 -0.02942 0.404
-0.03663 -0.02942 0.404
-0.037288 -0.02942 0.404
-0.037946 -0.02942 0.404
0.004212 -0.030227 0.406
0.00355 -0.030227 0.406
0.002889 -0.030227 0.406
0.002227 -0.030227 0.406
0.001562 -0.030153 0.405
0.000902 -0.030153 0.405
0.000241 -0.030153 0.405
-0.000418 -0.030078 0.404
-0.001076 -0.030078 0.404
-0.001734 -0.030078 0.404
-0.002393 -0.030078 0.404
-0.003051 -0.030078 0.404
-0.00371 -0.030078 0.404
-0.004368 -0.030078 0.404
-0.005026 -0.030078 0.404
-0.005685 -0.030078 0.404
-0.006343 -0.030078 0.404
-0.007002 -0.030078 0.404
-0.00766 -0.030078 0.404
-0.008339 -0.030153 0.405
-0.008999 -0.030153 0.405
-0.009659 -0.030153 0.405
-0.010319 -0.030153 0.405
-0.010979 -0.030153 0.405
-0.011668 -0.030227 0.406
-0.012329 -0.030227 0.406
-0.012991 -0.030227 0.406
-0.013653 -0.030227 0.406
-0.014314 -0.030227 0.406
-0.014976 -0.030227 0.406
-0.015638 -0.030227 0.406
-0.01634 -0.030301 0.407
-0.017003 -0.030301 0.407
-0.017666 -0.030301 0.407
-0.018329 -0.030301 0.407
-0.018993 -0.030301 0.407
-0.019656 -0.030301 0.407
-0.020319 -0.030301 0.407
-0.020983 -0.030301 0.407
-0.021646 -0.030301 0.407
-0.022309 -0.030301 0.407
-0.022973 -0.030301 0.407
-0.023636 -0.030301 0.407
-0.024299 -0.030301 0.407
-0.024962 -0.030301 0.407
-0.025626 -0.030301 0.407
-0.026289 -0.030301 0.407
-0.026952 -0.030301 0.407
-0.027616 -0.030301 0.407
-0.028279 -0.030301 0.407
-0.028942 -0.030301 0.407
-0.029605 -0.030301 0.407
-0.030269 -0.030301 0.407
-0.030932 -0.030301 0.407
-0.031595 -0.030301 0.407
-0.032259 -0.030301 0.407
-0.032922 -0.030301 0.407
-0.033585 -0.030301 0.407
-0.034249 -0.030301 0.407
-0.034912 -0.030301 0.407
-0.035488 -0.030227 0.406
-0.036149 -0.030227 0.406
-0.036811 -0.030227 0.406
-0.037473 -0.030227 0.406
0.004222 -0.030965 0.407
0.00355 -0.030888 0.406
0.002889 -0.030888 0.406
0.002227 -0.030888 0.406
0.001565 -0.030888 0.406
0.000904 -0.030888 0.406
0.000242 -0.030888 0.406
-0.000419 -0.030812 0.405
-0.001079 -0.030812 0.405
-0.001734 -0.030736 0.404
-0.002393 -0.030736 0.404
-0.003051 -0.030736 0.404
-0.00371 -0.030736 0.404
-0.004368 -0.030736 0.404
-0.005026 -0.030736 0.404
-0.005699 -0.030812 0.405
-0.006359 -0.030812 0.405
-0.007019 -0.030812 0.405
-0.007679 -0.030812 0.405
-0.00836 -0.030888 0.406
-0.009021 -0.030888 0.406
-0.009683 -0.030888 0.406
-0.010345 -0.030888 0.406
-0.011006 -0.030888 0.406
-0.011668 -0.030888 0.406
-0.012329 -0.030888 0.406
-0.013023 -0.030965 0.407
-0.013686 -0.030965 0.407
-0.01435 -0.030965 0.407
-0.015013 -0.030965 0.407
-0.015676 -0.030965 0.407
-0.01638 -0.031041 0.408
-0.017045 -0.031041 0.408
-0.01771 -0.031041 0.408
-0.018375 -0.031041 0.408
-0.019039 -0.031041 0.408
-0.019704 -0.031041 0.408
-0.020419 -0.031117 0.409
-0.021086 -0.031117 0.409
-0.021752 -0.031117 0.409
-0.022419 -0.031117 0.409
-0.023085 -0.031117 0.409
-0.023752 -0.031117 0.409
-0.024419 -0.031117 0.409
-0.025085 -0.031117 0.409
-0.025752 -0.031117 0.409
-0.026418 -0.031117 0.409
-0.027085 -0.031117 0.409
-0.027751 -0.031117 0.409
-0.028279 -0.030965 0.407
-0.028942 -0.030965 0.407
-0.029605 -0.030965 0.407
-0.030269 -0.030965 0.407
-0.030932 -0.030965 0.407
-0.031595 -0.030965 0.407
-0.032259 -0.030965 0.407
-0.032922 -0.030965 0.407
-0.033585 -0.030965 0.407
-0.034249 -0.030965 0.407
-0.034912 -0.030965 0.407
-0.035488 -0.030888 0.406
-0.036149 -0.030888 0.406
-0.036811 -0.030888 0.406
-0.037473 -0.030888 0.406
-0.038228 -0.030965 0.407
0.005563 -0.031705 0.408
0.004898 -0.031705 0.408
0.004222 -0.031628 0.407
0.00355 -0.03155 0.406
0.002889 -0.03155 0.406
0.002227 -0.03155 0.406
0.001565 -0.03155 0.406
0.000904 -0.03155 0.406
0.000242 -0.03155 0.406
-0.000419 -0.031472 0.405
-0.001079 -0.031472 0.405
-0.001734 -0.031395 0.404
-0.002393 -0.031395 0.404
-0.003051 -0.031395 0.404
-0.00371 -0.031395 0.404
-0.004368 -0.031395 0.404
-0.005026 -0.031395 0.404
-0.005699 -0.031472 0.405
-0.006359 -0.031472 0.405
-0.007019 -0.031472 0.405
-0.007679 -0.031472 0.405
-0.00836 -0.03155 0.406
-0.009021 -0.03155 0.406
-0.009683 -0.03155 0.406
-0.010345 -0.03155 0.406
-0.011006 -0.03155 0.406
-0.011668 -0.03155 0.406
-0.012329 -0.03155 0.406
-0.013023 -0.031628 0.407
-0.013686 -0.031628 0.407
-0.01435 -0.031628 0.407
-0.015013 -0.031628 0.407
-0.015676 -0.031628 0.407
-0.01638 -0.031705 0.408
-0.017045 -0.031705 0.408
-0.01771 -0.031705 0.408
-0.018375 -0.031705 0.408
-0.019039 -0.031705 0.408
-0.019704 -0.031705 0.408
-0.020419 -0.031783 0.409
-0.021086 -0.031783 0.409
-0.021752 -0.031783 0.409
-0.022419 -0.031783 0.409
-0.023085 -0.031783 0.409
-0.023752 -0.031783 0.409
-0.024419 -0.031783 0.409
-0.025085 -0.031783 0.409
-0.025752 -0.031783 0.409
-0.026418 -0.031783 0.409
-0.027085 -0.031783 0.409
-0.027751 -0.031783 0.409
-0.028418 -0.031783 0.409
-0.029084 -0.031783 0.409
-0.029751 -0.031783 0.409
-0.030417 -0.031783 0.409
-0.031084 -0.031783 0.409
-0.031751 -0.031783 0.409
-0.032417 -0.031783 0.409
-0.033084 -0.031783 0.409
-0.03375 -0.031783 0.409
-0.034333 -0.031705 0.408
-0.034998 -0.031705 0.408
-0.035662 -0.031705 0.408
-0.036327 -0.031705 0.408
-0.036992 -0.031705 0.408
-0.037565 -0.031628 0.407
-0.038228 -0.031628 0.407
0.005563 -0.03237 0.408
0.004898 -0.03237 0.408
0.004222 -0.032291 0.407
0.003559 -0.032291 0.407
0.002896 -0.032291 0.407
0.002227 -0.032211 0.406
0.001565 -0.032211 0.406
0.000904 -0.032211 0.406
0.000242 -0.032211 0.406
-0.000419 -0.032132 0.405
-0.001079 -0.032132 0.405
-0.001739 -0.032132 0.405
-0.002399 -0.032132 0.405
-0.003059 -0.032132 0.405
-0.003719 -0.032132 0.405
-0.004379 -0.032132 0.405
-0.005039 -0.032132 0.405
-0.005699 -0.032132 0.405
-0.006359 -0.032132 0.405
-0.007019 -0.032132 0.405
-0.007698 -0.032211 0.406
-0.00836 -0.032211 0.406
-0.009021 -0.032211 0.406
-0.009683 -0.032211 0.406
-0.010345 -0.032211 0.406
-0.011033 -0.032291 0.407
-0.011697 -0.032291 0.407
-0.01236 -0.032291 0.407
-0.013023 -0.032291 0.407
-0.01372 -0.03237 0.408
-0.014385 -0.03237 0.408
-0.01505 -0.03237 0.408
-0.015715 -0.03237 0.408
-0.01638 -0.03237 0.408
-0.017086 -0.032449 0.409
-0.017753 -0.032449 0.409
-0.018465 -0.032529 0.41
-0.019133 -0.032529 0.41
-0.019801 -0.032529 0.41
-0.020469 -0.032529 0.41
-0.021137 -0.032529 0.41
-0.021806 -0.032529 0.41
-0.022474 -0.032529 0.41
-0.023142 -0.032529 0.41
-0.02381 -0.032529 0.41
-0.024538 -0.032608 0.411
-0.025208 -0.032608 0.411
-0.025878 -0.032608 0.411
-0.026547 -0.032608 0.411
-0.027217 -0.032608 0.411
-0.027887 -0.032608 0.411
-0.028557 -0.032608 0.411
-0.029227 -0.032608 0.411
-0.029896 -0.032608 0.411
-0.030566 -0.032608 0.411
-0.031236 -0.032608 0.411
-0.031828 -0.032529 0.41
-0.032496 -0.032529 0.41
-0.033165 -0.032529 0.41
-0.033833 -0.032529 0.41
-0.034501 -0.032529 0.41
-0.035169 -0.032529 0.41
-0.035837 -0.032529 0.41
-0.036416 -0.032449 0.409
-0.037083 -0.032449 0.409
-0.037657 -0.03237 0.408
-0.038322 -0.03237 0.408
0.005576 -0.033116 0.409
0.00491 -0.033116 0.409
0.004233 -0.033035 0.408
0.003559 -0.032954 0.407
0.002896 -0.032954 0.407
0.002233 -0.032954 0.407
0.001569 -0.032954 0.407
0.000906 -0.032954 0.407
0.000242 -0.032873 0.406
-0.00042 -0.032873 0.406
-0.001081 -0.032873 0.406
-0.001739 -0.032792 0.405
-0.002399 -0.032792 0.405
-0.003059 -0.032792 0.405
-0.003719 -0.032792 0.405
-0.004379 -0.032792 0.405
-0.005039 -0.032792 0.405
-0.005699 -0.032792 0.405
-0.006375 -0.032873 0.406
-0.007036 -0.032873 0.406
-0.007698 -0.032873 0.406
-0.00836 -0.032873 0.406
-0.009021 -0.032873 0.406
-0.009707 -0.032954 0.407
-0.01037 -0.032954 0.407
-0.011033 -0.032954 0.407
-0.011697 -0.032954 0.407
-0.01236 -0.032954 0.407
-0.013055 -0.033035 0.408
-0.01372 -0.033035 0.408
-0.014385 -0.033035 0.408
-0.015087 -0.033116 0.409
-0.015753 -0.033116 0.409
-0.01642 -0.033116 0.409
-0.017086 -0.033116 0.409
-0.017753 -0.033116 0.409
-0.018465 -0.033197 0.41
-0.019133 -0.033197 0.41
-0.019801 -0.033197 0.41
-0.020469 -0.033197 0.41
-0.021137 -0.033197 0.41
-0.021806 -0.033197 0.41
-0.022474 -0.033197 0.41
-0.023142 -0.033197 0.41
-0.02381 -0.033197 0.41
-0.024538 -0.033278 0.411
-0.025208 -0.033278 0.411
-0.025878 -0.033278 0.411
-0.026547 -0.033278 0.411
-0.027217 -0.033278 0.411
-0.027887 -0.033278 0.411
-0.028557 -0.033278 0.411
-0.029227 -0.033278 0.411
-0.029896 -0.033278 0.411
-0.030566 -0.033278 0.411
-0.031236 -0.033278 0.411
-0.031828 -0.033197 0.41
-0.032496 -0.033197 0.41
-0.033165 -0.033197 0.41
-0.033833 -0.033197 0.41
-0.034501 -0.033197 0.41
-0.035169 -0.033197 0.41
-0.035837 -0.033197 0.41
-0.036416 -0.033116 0.409
-0.037083 -0.033116 0.409
-0.037657 -0.033035 0.408
-0.038322 -0.033035 0.408
0.005576 -0.033782 0.409
0.00491 -0.033782 0.409
0.004233 -0.0337 0.408
0.003559 -0.033617 0.407
0.002896 -0.033617 0.407
0.002233 -0.033617 0.407
0.001569 -0.033617 0.407
0.000906 -0.033617 0.407
0.000242 -0.033534 0.406
-0.00042 -0.033534 0.406
-0.001081 -0.033534 0.406
-0.001739 -0.033452 0.405
-0.002399 -0.033452 0.405
-0.003059 -0.033452 0.405
-0.003719 -0.033452 0.405
-0.004379 -0.033452 0.405
-0.005039 -0.033452 0.405
-0.005699 -0.033452 0.405
-0.006375 -0.033534 0.406
-0.007036 -0.033534 0.406
-0.007698 -0.033534 0.406
-0.00836 -0.033534 0.406
-0.009021 -0.033534 0.406
-0.009707 -0.033617 0.407
-0.01037 -0.033617 0.407
-0.011033 -0.033617 0.407
-0.011697 -0.033617 0.407
-0.01236 -0.033617 0.407
-0.013055 -0.0337 0.408
-0.01372 -0.0337 0.408
-0.014385 -0.0337 0.408
-0.015087 -0.033782 0.409
-0.015753 -0.033782 0.409
-0.01642 -0.033782 0.409
-0.017128 -0.033865 0.41
-0.017796 -0.033865 0.41
-0.018465 -0.033865 0.41
-0.019133 -0.033865 0.41
-0.019849 -0.033947 0.411
-0.020519 -0.033947 0.411
-0.021189 -0.033947 0.411
-0.021859 -0.033947 0.411
-0.022583 -0.03403 0.412
-0.023255 -0.03403 0.412
-0.023926 -0.03403 0.412
-0.024598 -0.03403 0.412
-0.025269 -0.03403 0.412
-0.025941 -0.03403 0.412
-0.026612 -0.03403 0.412
-0.027283 -0.03403 0.412
-0.028023 -0.034113 0.413
-0.028696 -0.034113 0.413
-0.029369 -0.034113 0.413
-0.030042 -0.034113 0.413
-0.030641 -0.03403 0.412
-0.031312 -0.03403 0.412
-0.031983 -0.03403 0.412
-0.032655 -0.03403 0.412
-0.033326 -0.03403 0.412
-0.033998 -0.03403 0.412
-0.034585 -0.033947 0.411
-0.035255 -0.033947 0.411
-0.035925 -0.033947 0.411
-0.036505 -0.033865 0.41
-0.037174 -0.033865 0.41
-0.037842 -0.033865 0.41
0.005576 -0.034449 0.409
0.00491 -0.034449 0.409
0.004233 -0.034364 0.408
0.003559 -0.03428 0.407
0.002896 -0.03428 0.407
0.002233 -0.03428 0.407
0.001569 -0.03428 0.407
0.000906 -0.03428 0.407
0.000242 -0.034196 0.406
-0.00042 -0.034196 0.406
-0.001081 -0.034196 0.406
-0.001739 -0.034112 0.405
-0.002399 -0.034112 0.405
-0.003059 -0.034112 0.405
-0.003719 -0.034112 0.405
-0.004379 -0.034112 0.405
-0.005039 -0.034112 0.405
-0.005699 -0.034112 0.405
-0.006375 -0.034196 0.406
-0.007036 -0.034196 0.406
-0.007698 -0.034196 0.406
-0.00836 -0.034196 0.406
-0.009021 -0.034196 0.406
-0.009707 -0.03428 0.407
-0.01037 -0.03428 0.407
-0.011033 -0.03428 0.407
-0.011697 -0.03428 0.407
-0.01236 -0.03428 0.407
-0.013055 -0.034364 0.408
-0.01372 -0.034364 0.408
-0.014385 -0.034364 0.408
-0.015087 -0.034449 0.409
-0.015753 -0.034449 0.409
-0.01646 -0.034533 0.41
-0.01717 -0.034617 0.411
-0.01784 -0.034617 0.411
-0.01851 -0.034617 0.411
-0.019179 -0.034617 0.411
-0.019898 -0.034701 0.412
-0.020569 -0.034701 0.412
-0.02124 -0.034701 0.412
-0.021965 -0.034786 0.413
-0.022638 -0.034786 0.413
-0.023311 -0.034786 0.413
-0.023984 -0.034786 0.413
-0.024657 -0.034786 0.413
-0.02533 -0.034786 0.413
-0.026003 -0.034786 0.413
-0.026677 -0.034786 0.413
-0.027416 -0.03487 0.414
-0.028091 -0.03487 0.414
-0.028765 -0.03487 0.414
-0.02944 -0.03487 0.414
-0.030115 -0.03487 0.414
-0.030789 -0.03487 0.414
-0.031464 -0.03487 0.414
-0.032139 -0.03487 0.414
-0.032734 -0.034786 0.413
-0.033407 -0.034786 0.413
-0.03408 -0.034786 0.413
-0.034753 -0.034786 0.413
-0.035426 -0.034786 0.413
-0.0361 -0.034786 0.413
0.005576 -0.035115 0.409
0.00491 -0.035115 0.409
0.004233 -0.035029 0.408
0.003559 -0.034943 0.407
0.002896 -0.034943 0.407
0.002233 -0.034943 0.407
0.001569 -0.034943 0.407
0.000906 -0.034943 0.407
0.000242 -0.034857 0.406
-0.00042 -0.034857 0.406
-0.001081 -0.034857 0.406
-0.001739 -0.034772 0.405
-0.002399 -0.034772 0.405
-0.003059 -0.034772 0.405
-0.003719 -0.034772 0.405
-0.004379 -0.034772 0.405
-0.005039 -0.034772 0.405
-0.005699 -0.034772 0.405
-0.006375 -0.034857 0.406
-0.007036 -0.034857 0.406
-0.007698 -0.034857 0.406
-0.00836 -0.034857 0.406
-0.009021 -0.034857 0.406
-0.009707 -0.034943 0.407
-0.01037 -0.034943 0.407
-0.011033 -0.034943 0.407
-0.011697 -0.034943 0.407
-0.01236 -0.034943 0.407
-0.013055 -0.035029 0.408
-0.01372 -0.035029 0.408
-0.014385 -0.035029 0.408
-0.015087 -0.035115 0.409
-0.015753 -0.035115 0.409
-0.01646 -0.035201 0.41
-0.01717 -0.035287 0.411
-0.01784 -0.035287 0.411
-0.01851 -0.035287 0.411
-0.019179 -0.035287 0.411
-0.019898 -0.035373 0.412
-0.020569 -0.035373 0.412
-0.02124 -0.035373 0.412
-0.021965 -0.035458 0.413
-0.022638 -0.035458 0.413
-0.023311 -0.035458 0.413
-0.023984 -0.035458 0.413
-0.024657 -0.035458 0.413
-0.02533 -0.035458 0.413
-0.026003 -0.035458 0.413
-0.026677 -0.035458 0.413
-0.027416 -0.035544 0.414
-0.028091 -0.035544 0.414
-0.028765 -0.035544 0.414
-0.02944 -0.035544 0.414
-0.030115 -0.035544 0.414
-0.030789 -0.035544 0.414
-0.031464 -0.035544 0.414
-0.032139 -0.035544 0.414
-0.032734 -0.035458 0.413
-0.033407 -0.035458 0.413
-0.03408 -0.035458 0.413
-0.034753 -0.035458 0.413
-0.035426 -0.035458 0.413
-0.0361 -0.035458 0.413
0.005576 -0.035781 0.409
0.00491 -0.035781 0.409
0.004233 -0.035694 0.408
0.003559 -0.035606 0.407
0.002896 -0.035606 0.407
0.002233 -0.035606 0.407
0.001569 -0.035606 0.407
0.000906 -0.035606 0.407
0.000242 -0.035519 0.406
-0.000419 -0.035431 0.405
-0.001079 -0.035431 0.405
-0.001739 -0.035431 0.405
-0.002399 -0.035431 0.405
-0.003059 -0.035431 0.405
-0.003719 -0.035431 0.405
-0.004379 -0.035431 0.405
-0.005039 -0.035431 0.405
-0.005699 -0.035431 0.405
-0.006359 -0.035431 0.405
-0.007019 -0.035431 0.405
-0.007698 -0.035519 0.406
-0.00836 -0.035519 0.406
-0.009021 -0.035519 0.406
-0.009683 -0.035519 0.406
-0.010345 -0.035519 0.406
-0.011033 -0.035606 0.407
-0.011697 -0.035606 0.407
-0.01236 -0.035606 0.407
-0.013055 -0.035694 0.408
-0.013754 -0.035781 0.409
-0.01442 -0.035781 0.409
-0.015124 -0.035869 0.41
-0.015792 -0.035869 0.41
-0.01646 -0.035869 0.41
-0.01717 -0.035956 0.411
-0.01784 -0.035956 0.411
-0.018555 -0.036044 0.412
-0.019226 -0.036044 0.412
-0.019946 -0.036131 0.413
-0.020619 -0.036131 0.413
-0.021292 -0.036131 0.413
-0.021965 -0.036131 0.413
-0.022693 -0.036219 0.414
-0.023368 -0.036219 0.414
-0.024042 -0.036219 0.414
-0.024717 -0.036219 0.414
-0.025392 -0.036219 0.414
-0.026066 -0.036219 0.414
-0.026741 -0.036219 0.414
-0.027416 -0.036219 0.414
-0.028091 -0.036219 0.414
-0.028765 -0.036219 0.414
-0.029511 -0.036306 0.415
-0.030187 -0.036306 0.415
-0.030789 -0.036219 0.414
-0.031464 -0.036219 0.414
-0.032139 -0.036219 0.414
-0.032813 -0.036219 0.414
-0.033488 -0.036219 0.414
-0.034163 -0.036219 0.414
-0.034838 -0.036219 0.414
0.005576 -0.036448 0.409
0.00491 -0.036448 0.409
0.004233 -0.036359 0.408
0.003559 -0.03627 0.407
0.002896 -0.03627 0.407
0.002233 -0.03627 0.407
0.001569 -0.03627 0.407
0.000906 -0.03627 0.407
0.000242 -0.03618 0.406
-0.000419 -0.036091 0.405
-0.001079 -0.036091 0.405
-0.001739 -0.036091 0.405
-0.002399 -0.036091 0.405
-0.003059 -0.036091 0.405
-0.003719 -0.036091 0.405
