# .PCD v0.7 - Point Cloud Data file format
VERSION 0.7
FIELDS x y z
SIZE 4 4 4
TYPE F F F
COUNT 1 1 1
WIDTH 1139
HEIGHT 1
VIEWPOINT 0 0 0 1 0 0 0
POINTS 1139
DATA ascii
0.04098929837 -0.02915129997 0.5310000181
0.04185467213 -0.02915129997 0.5310000181
0.04272004962 -0.02915129997 0.5310000181
0.04366751015 -0.02920619585 0.5320000052
0.04461822659 -0.02926109731 0.533000052
0.0454868637 -0.02926109731 0.533000052
0.04644246772 -0.02931599692 0.5340000391
0.04740133509 -0.02937089279 0.5350000262
0.04827323183 -0.02937089279 0.5350000262
0.04923698306 -0.02942579426 0.5360000134
0.05020399764 -0.02948069014 0.5370000005
0.05107915401 -0.02948069014 0.5370000005
0.05205105618 -0.0295355916 0.5380000472
0.0529278405 -0.0295355916 0.5380000472
0.05380462483 -0.0295355916 0.5380000472
0.05468140543 -0.0295355916 0.5380000472
0.05555818975 -0.0295355916 0.5380000472
0.05643497407 -0.0295355916 0.5380000472
0.0573117584 -0.0295355916 0.5380000472
0.05818854272 -0.0295355916 0.5380000472
0.05906532705 -0.0295355916 0.5380000472
0.05994211137 -0.0295355916 0.5380000472
0.06070585549 -0.02948069014 0.5370000005
0.06158100814 -0.02948069014 0.5370000005
0.06245616451 -0.02948069014 0.5370000005
0.06333132088 -0.02948069014 0.5370000005
0.06420647353 -0.02948069014 0.5370000005
0.06496042758 -0.02942579426 0.5360000134
0.065833956 -0.02942579426 0.5360000134
0.06670747697 -0.02942579426 0.5360000134
0.06745491922 -0.02937089279 0.5350000262
0.06832680851 -0.02937089279 0.5350000262
0.06906937063 -0.02931599692 0.5340000391
0.06980865449 -0.02926109731 0.533000052
0.07067729533 -0.02926109731 0.533000052
0.0712774694 -0.02915129997 0.5310000181
0.07214283943 -0.02915129997 0.5310000181
0.0728707239 -0.0290963985 0.530000031
0.07359534502 -0.02904150262 0.5290000439
0.0744574666 -0.02904150262 0.5290000439
0.07503481954 -0.02893170528 0.52700001
0.07589367777 -0.02893170528 0.52700001
0.07660689205 -0.02887680382 0.5260000229
0.07731685042 -0.02882190421 0.5250000358
0.07817245275 -0.02882190421 0.5250000358
0.07887751609 -0.02876700647 0.5240000486
0.07973148674 -0.02876700647 0.5240000486
0.08058545738 -0.02876700647 0.5240000486
0.08143942058 -0.02876700647 0.5240000486
0.08229339123 -0.02876700647 0.5240000486
0.08314736187 -0.02876700647 0.5240000486
0.08416163921 -0.02882190421 0.5250000358
0.08517916501 -0.02887680382 0.5260000229
0.08603639901 -0.02887680382 0.5260000229
0.08705881983 -0.02893170528 0.52700001
0.08825132996 -0.02904150262 0.5290000439
0.08911345154 -0.02904150262 0.5290000439
0.09031574428 -0.02915129997 0.5310000181
0.09135282785 -0.02920619585 0.5320000052
0.09221983701 -0.02920619585 0.5320000052
-0.01642921008 -0.02881883085 0.5410000086
-0.01551879849 -0.0287655592 0.5400000215
-0.01463875454 -0.0287655592 0.5400000215
-0.01375871152 -0.0287655592 0.5400000215
-0.01287866663 -0.0287655592 0.5400000215
-0.01199862361 -0.0287655592 0.5400000215
-0.01111857966 -0.0287655592 0.5400000215
-0.0102385357 -0.0287655592 0.5400000215
-0.00935849268 -0.0287655592 0.5400000215
-0.008478448726 -0.0287655592 0.5400000215
-0.007598405704 -0.0287655592 0.5400000215
-0.00671836175 -0.0287655592 0.5400000215
-0.005838318262 -0.0287655592 0.5400000215
-0.004958274774 -0.0287655592 0.5400000215
-0.004078231286 -0.0287655592 0.5400000215
-0.003198188031 -0.0287655592 0.5400000215
-0.002318144543 -0.0287655592 0.5400000215
-0.001438100939 -0.0287655592 0.5400000215
-0.0005580573925 -0.0287655592 0.5400000215
0.0003219861537 -0.0287655592 0.5400000215
0.001202029642 -0.0287655592 0.5400000215
0.00208207313 -0.0287655592 0.5400000215
0.002962116851 -0.0287655592 0.5400000215
0.003842160571 -0.0287655592 0.5400000215
0.004722204059 -0.0287655592 0.5400000215
0.005602247547 -0.0287655592 0.5400000215
0.006482291035 -0.0287655592 0.5400000215
0.007362334523 -0.0287655592 0.5400000215
0.008227113634 -0.02871228755 0.5390000343
0.009105527773 -0.02871228755 0.5390000343
0.009983941913 -0.02871228755 0.5390000343
0.01086235512 -0.02871228755 0.5390000343
0.01174076926 -0.02871228755 0.5390000343
0.0126191834 -0.02871228755 0.5390000343
0.01349759754 -0.02871228755 0.5390000343
0.01437601168 -0.02871228755 0.5390000343
0.01525442582 -0.02871228755 0.5390000343
0.01610290818 -0.02865901962 0.5380000472
0.0169796925 -0.02865901962 0.5380000472
0.01785647497 -0.02865901962 0.5380000472
0.01873325929 -0.02865901962 0.5380000472
0.01957359351 -0.02860574983 0.5370000005
0.02044874802 -0.02860574983 0.5370000005
0.02132390253 -0.02860574983 0.5370000005
0.02215771936 -0.0285524819 0.5360000134
0.02303124405 -0.0285524819 0.5360000134
0.02390476875 -0.0285524819 0.5360000134
0.02477829345 -0.0285524819 0.5360000134
0.02565181814 -0.0285524819 0.5360000134
0.02647585422 -0.02849921025 0.5350000262
0.02729663067 -0.02844594233 0.5340000391
0.02816689573 -0.02844594233 0.5340000391
0.02898278646 -0.02839267254 0.533000052
0.0297954157 -0.02833940089 0.5320000052
0.03393797949 -0.02817959525 0.5290000439
0.03480009735 -0.02817959525 0.5290000439
0.0356622152 -0.02817959525 0.5290000439
0.03652432933 -0.02817959525 0.5290000439
0.04083491489 -0.02817959525 0.5290000439
0.04177585244 -0.02823286317 0.530000031
0.04263959825 -0.02823286317 0.530000031
0.04358542711 -0.02828613296 0.5310000181
0.04453451559 -0.02833940089 0.5320000052
0.04540152103 -0.02833940089 0.5320000052
0.04635549709 -0.02839267254 0.533000052
0.04731273279 -0.02844594233 0.5340000391
0.04818299785 -0.02844594233 0.5340000391
0.04914512485 -0.02849921025 0.5350000262
0.05011050776 -0.0285524819 0.5360000134
0.05098403245 -0.0285524819 0.5360000134
0.05195430666 -0.02860574983 0.5370000005
0.05282945931 -0.02860574983 0.5370000005
0.05380462483 -0.02865901962 0.5380000472
0.05468140543 -0.02865901962 0.5380000472
0.05555818975 -0.02865901962 0.5380000472
0.05643497407 -0.02865901962 0.5380000472
0.0573117584 -0.02865901962 0.5380000472
0.05818854272 -0.02865901962 0.5380000472
0.05906532705 -0.02865901962 0.5380000472
0.05994211137 -0.02865901962 0.5380000472
0.06070585549 -0.02860574983 0.5370000005
0.06158100814 -0.02860574983 0.5370000005
0.06245616451 -0.02860574983 0.5370000005
0.06321337819 -0.0285524819 0.5360000134
0.06408690661 -0.0285524819 0.5360000134
0.06496042758 -0.0285524819 0.5360000134
0.065833956 -0.0285524819 0.5360000134
0.06658302248 -0.02849921025 0.5350000262
0.06732884049 -0.02844594233 0.5340000391
0.06819910556 -0.02844594233 0.5340000391
0.0689400211 -0.02839267254 0.533000052
0.06954671443 -0.02828613296 0.5310000181
0.07041209191 -0.02828613296 0.5310000181
0.07114323229 -0.02823286317 0.530000031
0.07200697809 -0.02823286317 0.530000031
0.07259574533 -0.0281263236 0.5279999971
0.0731779784 -0.02801978588 0.5260000229
0.0740352124 -0.02801978588 0.5260000229
0.07475005835 -0.02796651423 0.5250000358
0.07560566068 -0.02796651423 0.5250000358
0.0763156116 -0.0279132463 0.5240000486
0.07716958225 -0.0279132463 0.5240000486
0.07817245275 -0.02796651423 0.5250000358
0.07887751609 -0.0279132463 0.5240000486
0.07973148674 -0.0279132463 0.5240000486
0.08058545738 -0.0279132463 0.5240000486
0.08143942058 -0.0279132463 0.5240000486
0.08229339123 -0.0279132463 0.5240000486
0.08314736187 -0.0279132463 0.5240000486
0.08416163921 -0.02796651423 0.5250000358
0.08517916501 -0.02801978588 0.5260000229
0.08603639901 -0.02801978588 0.5260000229
0.08705881983 -0.02807305567 0.52700001
0.08825132996 -0.02817959525 0.5290000439
0.08911345154 -0.02817959525 0.5290000439
0.09031574428 -0.02828613296 0.5310000181
0.09135282785 -0.02833940089 0.5320000052
0.09221983701 -0.02833940089 0.5320000052
-0.01642921008 -0.02793737128 0.5410000086
-0.01551879849 -0.02788572945 0.5400000215
-0.01463875454 -0.02788572945 0.5400000215
-0.01375871152 -0.02788572945 0.5400000215
-0.01287866663 -0.02788572945 0.5400000215
-0.01199862361 -0.02788572945 0.5400000215
-0.01111857966 -0.02788572945 0.5400000215
-0.0102385357 -0.02788572945 0.5400000215
-0.00935849268 -0.02788572945 0.5400000215
-0.008478448726 -0.02788572945 0.5400000215
-0.007598405704 -0.02788572945 0.5400000215
-0.00671836175 -0.02788572945 0.5400000215
-0.005838318262 -0.02788572945 0.5400000215
-0.004958274774 -0.02788572945 0.5400000215
-0.004078231286 -0.02788572945 0.5400000215
-0.003198188031 -0.02788572945 0.5400000215
-0.002318144543 -0.02788572945 0.5400000215
-0.001438100939 -0.02788572945 0.5400000215
-0.0005580573925 -0.02788572945 0.5400000215
0.0003219861537 -0.02788572945 0.5400000215
0.001202029642 -0.02788572945 0.5400000215
0.00208207313 -0.02788572945 0.5400000215
0.002962116851 -0.02788572945 0.5400000215
0.003842160571 -0.02788572945 0.5400000215
0.004722204059 -0.02788572945 0.5400000215
0.005602247547 -0.02788572945 0.5400000215
0.006482291035 -0.02788572945 0.5400000215
0.007362334523 -0.02788572945 0.5400000215
0.008242378011 -0.02788572945 0.5400000215
0.009122421965 -0.02788572945 0.5400000215
0.01000246499 -0.02788572945 0.5400000215
0.01086235512 -0.02783408761 0.5390000343
0.01174076926 -0.02783408761 0.5390000343
0.0126191834 -0.02783408761 0.5390000343
0.01349759754 -0.02783408761 0.5390000343
0.01437601168 -0.02783408761 0.5390000343
0.01525442582 -0.02783408761 0.5390000343
0.01613283902 -0.02783408761 0.5390000343
0.01701125316 -0.02783408761 0.5390000343
0.01785647497 -0.0277824495 0.5380000472
0.01873325929 -0.0277824495 0.5380000472
0.01957359351 -0.02773080766 0.5370000005
0.02044874802 -0.02773080766 0.5370000005
0.02132390253 -0.02773080766 0.5370000005
0.02219905704 -0.02773080766 0.5370000005
0.02303124405 -0.02767916955 0.5360000134
0.02390476875 -0.02767916955 0.5360000134
0.02477829345 -0.02767916955 0.5360000134
0.02565181814 -0.02767916955 0.5360000134
0.02647585422 -0.02762752771 0.5350000262
0.02729663067 -0.0275758896 0.5340000391
0.02816689573 -0.0275758896 0.5340000391
0.02898278646 -0.02752424777 0.533000052
0.03320091218 -0.02742096782 0.5310000181
0.03393797949 -0.02731768787 0.5290000439
0.03480009735 -0.02731768787 0.5290000439
0.0356622152 -0.02731768787 0.5290000439
0.03652432933 -0.02731768787 0.5290000439
0.03738644719 -0.02731768787 0.5290000439
0.04177585244 -0.02736932598 0.530000031
0.04263959825 -0.02736932598 0.530000031
0.04358542711 -0.02742096782 0.5310000181
0.04453451559 -0.02747260593 0.5320000052
0.04540152103 -0.02747260593 0.5320000052
0.04635549709 -0.02752424777 0.533000052
0.04731273279 -0.0275758896 0.5340000391
0.04818299785 -0.0275758896 0.5340000391
0.04914512485 -0.02762752771 0.5350000262
0.05011050776 -0.02767916955 0.5360000134
0.05098403245 -0.02767916955 0.5360000134
0.05195430666 -0.02773080766 0.5370000005
0.05282945931 -0.02773080766 0.5370000005
0.05380462483 -0.0277824495 0.5380000472
0.05468140543 -0.0277824495 0.5380000472
0.05555818975 -0.0277824495 0.5380000472
0.05643497407 -0.0277824495 0.5380000472
0.0573117584 -0.0277824495 0.5380000472
0.05818854272 -0.0277824495 0.5380000472
0.05906532705 -0.0277824495 0.5380000472
0.05994211137 -0.0277824495 0.5380000472
0.06070585549 -0.02773080766 0.5370000005
0.06158100814 -0.02773080766 0.5370000005
0.06245616451 -0.02773080766 0.5370000005
0.06321337819 -0.02767916955 0.5360000134
0.06408690661 -0.02767916955 0.5360000134
0.06496042758 -0.02767916955 0.5360000134
0.065833956 -0.02767916955 0.5360000134
0.06658302248 -0.02762752771 0.5350000262
0.06732884049 -0.0275758896 0.5340000391
0.06819910556 -0.0275758896 0.5340000391
0.0689400211 -0.02752424777 0.533000052
0.06954671443 -0.02742096782 0.5310000181
0.07041209191 -0.02742096782 0.5310000181
0.07114323229 -0.02736932598 0.530000031
0.07200697809 -0.02736932598 0.530000031
0.07259574533 -0.02726604603 0.5279999971
0.0731779784 -0.02716276608 0.5260000229
0.0740352124 -0.02716276608 0.5260000229
0.07475005835 -0.02711112425 0.5250000358
0.07560566068 -0.02711112425 0.5250000358
0.0763156116 -0.02705948614 0.5240000486
0.07702230662 -0.0270078443 0.5230000019
0.07787464559 -0.0270078443 0.5230000019
0.07857646048 -0.02695620619 0.5220000148
0.07927500457 -0.02690456435 0.5210000277
0.08012408763 -0.02690456435 0.5210000277
0.08097316325 -0.02690456435 0.5210000277
0.0819792971 -0.02695620619 0.5220000148
0.08283000439 -0.02695620619 0.5220000148
0.08368071169 -0.02695620619 0.5220000148
0.08469335735 -0.0270078443 0.5230000019
0.08554569632 -0.0270078443 0.5230000019
0.08672843128 -0.02711112425 0.5250000358
0.08775085211 -0.02716276608 0.5260000229
0.08860807866 -0.02716276608 0.5260000229
0.08980548382 -0.02726604603 0.5279999971
0.09118111432 -0.02742096782 0.5310000181
0.0920464918 -0.02742096782 0.5310000181
-0.01642921008 -0.02705591172 0.5410000086
-0.01554753631 -0.02705591172 0.5410000086
-0.01466586255 -0.02705591172 0.5410000086
-0.01378418971 -0.02705591172 0.5410000086
-0.01287866663 -0.0270058997 0.5400000215
-0.01199862361 -0.0270058997 0.5400000215
-0.01111857966 -0.0270058997 0.5400000215
-0.0102385357 -0.0270058997 0.5400000215
-0.00935849268 -0.0270058997 0.5400000215
-0.008478448726 -0.0270058997 0.5400000215
-0.007598405704 -0.0270058997 0.5400000215
-0.00671836175 -0.0270058997 0.5400000215
-0.005838318262 -0.0270058997 0.5400000215
-0.004958274774 -0.0270058997 0.5400000215
-0.004078231286 -0.0270058997 0.5400000215
-0.003198188031 -0.0270058997 0.5400000215
-0.002318144543 -0.0270058997 0.5400000215
-0.001438100939 -0.0270058997 0.5400000215
-0.0005580573925 -0.0270058997 0.5400000215
0.0003219861537 -0.0270058997 0.5400000215
0.001202029642 -0.0270058997 0.5400000215
0.00208207313 -0.0270058997 0.5400000215
0.002962116851 -0.0270058997 0.5400000215
0.003842160571 -0.0270058997 0.5400000215
0.004722204059 -0.0270058997 0.5400000215
0.005602247547 -0.0270058997 0.5400000215
0.006482291035 -0.0270058997 0.5400000215
0.007362334523 -0.0270058997 0.5400000215
0.008242378011 -0.0270058997 0.5400000215
0.009122421965 -0.0270058997 0.5400000215
0.01000246499 -0.0270058997 0.5400000215
0.01088250894 -0.0270058997 0.5400000215
0.01176255196 -0.0270058997 0.5400000215
0.01264259592 -0.0270058997 0.5400000215
0.01352263894 -0.0270058997 0.5400000215
0.01440268196 -0.0270058997 0.5400000215
0.01528272592 -0.0270058997 0.5400000215
0.01613283902 -0.02695588768 0.5390000343
0.01701125316 -0.02695588768 0.5390000343
0.0178896673 -0.02695588768 0.5390000343
0.01873325929 -0.02690587938 0.5380000472
0.01961004362 -0.02690587938 0.5380000472
0.02048682794 -0.02690587938 0.5380000472
0.02136361226 -0.02690587938 0.5380000472
0.02219905704 -0.02685586736 0.5370000005
0.02303124405 -0.0268058572 0.5360000134
0.02390476875 -0.0268058572 0.5360000134
0.02477829345 -0.0268058572 0.5360000134
0.02565181814 -0.0268058572 0.5360000134
0.02647585422 -0.02675584517 0.5350000262
0.02729663067 -0.02670583688 0.5340000391
0.02816689573 -0.02670583688 0.5340000391
0.02898278646 -0.02665582299 0.533000052
0.03313838691 -0.02650579251 0.530000031
0.03393797949 -0.02645577863 0.5290000439
0.03480009735 -0.02645577863 0.5290000439
0.03559479862 -0.02640576847 0.5279999971
0.0364552848 -0.02640576847 0.5279999971
0.03731577098 -0.02640576847 0.5279999971
0.03817625716 -0.02640576847 0.5279999971
0.04169703275 -0.02645577863 0.5290000439
0.04255914688 -0.02645577863 0.5290000439
0.04350334406 -0.02650579251 0.530000031
0.04445080087 -0.02655580267 0.5310000181
0.04531617835 -0.02655580267 0.5310000181
0.04626852646 -0.02660581283 0.5320000052
0.04731273279 -0.02670583688 0.5340000391
0.04818299785 -0.02670583688 0.5340000391
0.04914512485 -0.02675584517 0.5350000262
0.05011050776 -0.0268058572 0.5360000134
0.05098403245 -0.0268058572 0.5360000134
0.05185755715 -0.0268058572 0.5360000134
0.05273108184 -0.0268058572 0.5360000134
0.05370461941 -0.02685586736 0.5370000005
0.05457977206 -0.02685586736 0.5370000005
0.05545492843 -0.02685586736 0.5370000005
0.05643497407 -0.02690587938 0.5380000472
0.0573117584 -0.02690587938 0.5380000472
0.0580803901 -0.02685586736 0.5370000005
0.05895554647 -0.02685586736 0.5370000005
0.05983069912 -0.02685586736 0.5370000005
0.06070585549 -0.02685586736 0.5370000005
0.06158100814 -0.02685586736 0.5370000005
0.0623398535 -0.0268058572 0.5360000134
0.06321337819 -0.0268058572 0.5360000134
0.06408690661 -0.0268058572 0.5360000134
0.06483922899 -0.02675584517 0.5350000262
0.06571112573 -0.02675584517 0.5350000262
0.06645857543 -0.02670583688 0.5340000391
0.06720275432 -0.02665582299 0.533000052
0.06807138771 -0.02665582299 0.533000052
0.06868133694 -0.02655580267 0.5310000181
0.06941574067 -0.02650579251 0.530000031
0.07027948648 -0.02650579251 0.530000031
0.07087476552 -0.02640576847 0.5279999971
0.07173525542 -0.02640576847 0.5279999971
0.07232075185 -0.02630574815 0.5260000229
0.07289974391 -0.02620572597 0.5240000486
0.07375370711 -0.02620572597 0.5240000486
0.07446529716 -0.02615571581 0.5230000019
0.07531762868 -0.02615571581 0.5230000019
0.07602433115 -0.02610570379 0.5220000148
0.07672777027 -0.02605569176 0.5210000277
0.07757685333 -0.02605569176 0.5210000277
0.07827539742 -0.0260056816 0.5200000405
0.07912284881 -0.0260056816 0.5200000405
0.07981651276 -0.02595567144 0.5190000534
0.08066233248 -0.02595567144 0.5190000534
0.08150815219 -0.02595567144 0.5190000534
0.0823539719 -0.02595567144 0.5190000534
0.08336009085 -0.0260056816 0.5200000405
0.08436948061 -0.02605569176 0.5210000277
0.08521856368 -0.02605569176 0.5210000277
0.08623284101 -0.02610570379 0.5220000148
0.08741720021 -0.02620572597 0.5240000486
0.08827117085 -0.02620572597 0.5240000486
0.08946530521 -0.02630574815 0.5260000229
0.09066596627 -0.02640576847 0.5279999971
0.09152645618 -0.02640576847 0.5279999971
0.09291186929 -0.02655580267 0.5310000181
-0.01642921008 -0.02617445216 0.5410000086
-0.01554753631 -0.02617445216 0.5410000086
-0.01466586255 -0.02617445216 0.5410000086
-0.01378418971 -0.02617445216 0.5410000086
-0.01287866663 -0.02612606995 0.5400000215
-0.01199862361 -0.02612606995 0.5400000215
-0.01111857966 -0.02612606995 0.5400000215
-0.0102385357 -0.02612606995 0.5400000215
-0.00935849268 -0.02612606995 0.5400000215
-0.008478448726 -0.02612606995 0.5400000215
-0.007598405704 -0.02612606995 0.5400000215
-0.00671836175 -0.02612606995 0.5400000215
-0.005838318262 -0.02612606995 0.5400000215
-0.004958274774 -0.02612606995 0.5400000215
-0.004078231286 -0.02612606995 0.5400000215
-0.003198188031 -0.02612606995 0.5400000215
-0.002318144543 -0.02612606995 0.5400000215
-0.001438100939 -0.02612606995 0.5400000215
-0.0005580573925 -0.02612606995 0.5400000215
0.0003219861537 -0.02612606995 0.5400000215
0.001202029642 -0.02612606995 0.5400000215
0.00208207313 -0.02612606995 0.5400000215
0.002962116851 -0.02612606995 0.5400000215
0.003842160571 -0.02612606995 0.5400000215
0.004722204059 -0.02612606995 0.5400000215
0.005602247547 -0.02612606995 0.5400000215
0.006482291035 -0.02612606995 0.5400000215
0.007362334523 -0.02612606995 0.5400000215
0.008242378011 -0.02612606995 0.5400000215
0.009122421965 -0.02612606995 0.5400000215
0.01000246499 -0.02612606995 0.5400000215
0.01088250894 -0.02612606995 0.5400000215
0.01176255196 -0.02612606995 0.5400000215
0.01264259592 -0.02612606995 0.5400000215
0.01352263894 -0.02612606995 0.5400000215
0.01440268196 -0.02612606995 0.5400000215
0.01528272592 -0.02612606995 0.5400000215
0.01613283902 -0.0260776896 0.5390000343
0.01701125316 -0.0260776896 0.5390000343
0.0178896673 -0.0260776896 0.5390000343
0.01873325929 -0.0260293074 0.5380000472
0.01961004362 -0.0260293074 0.5380000472
0.02048682794 -0.0260293074 0.5380000472
0.02136361226 -0.0260293074 0.5380000472
0.02219905704 -0.02598092705 0.5370000005
0.02303124405 -0.02593254298 0.5360000134
0.02390476875 -0.02593254298 0.5360000134
0.02477829345 -0.02593254298 0.5360000134
0.02565181814 -0.02593254298 0.5360000134
0.02647585422 -0.02588416263 0.5350000262
0.02724551596 -0.02578740008 0.533000052
0.02811415121 -0.02578740008 0.533000052
0.02892841026 -0.02573901787 0.5320000052
0.03233553469 -0.02569063753 0.5310000181
0.03313838691 -0.02564225532 0.530000031
0.03387382254 -0.02554549091 0.5279999971
0.03473431244 -0.02554549091 0.5279999971
0.03559479862 -0.02554549091 0.5279999971
0.0364552848 -0.02554549091 0.5279999971
0.03731577098 -0.02554549091 0.5279999971
0.03817625716 -0.02554549091 0.5279999971
0.04169703275 -0.02559387311 0.5290000439
0.04255914688 -0.02559387311 0.5290000439
0.04350334406 -0.02564225532 0.530000031
0.04445080087 -0.02569063753 0.5310000181
0.04531617835 -0.02569063753 0.5310000181
0.04626852646 -0.02573901787 0.5320000052
0.04722413421 -0.02578740008 0.533000052
0.0480927676 -0.02578740008 0.533000052
0.04905326292 -0.02583578043 0.5340000391
0.0500170216 -0.02588416263 0.5350000262
0.05088891461 -0.02588416263 0.5350000262
0.05185755715 -0.02593254298 0.5360000134
0.05273108184 -0.02593254298 0.5360000134
0.05360460654 -0.02593254298 0.5360000134
0.05457977206 -0.02598092705 0.5370000005
0.05545492843 -0.02598092705 0.5370000005
0.05633008108 -0.02598092705 0.5370000005
0.05720523745 -0.02598092705 0.5370000005
0.0580803901 -0.02598092705 0.5370000005
0.05895554647 -0.02598092705 0.5370000005
0.05983069912 -0.02598092705 0.5370000005
0.0605928041 -0.02593254298 0.5360000134
0.0614663288 -0.02593254298 0.5360000134
0.0623398535 -0.02593254298 0.5360000134
0.06309544295 -0.02588416263 0.5350000262
0.06396733969 -0.02588416263 0.5350000262
0.06483922899 -0.02588416263 0.5350000262
0.06571112573 -0.02588416263 0.5350000262
0.06645857543 -0.02583578043 0.5340000391
0.06720275432 -0.02578740008 0.533000052
0.06807138771 -0.02578740008 0.533000052
0.06868133694 -0.02569063753 0.5310000181
0.06941574067 -0.02564225532 0.530000031
0.07027948648 -0.02564225532 0.530000031
0.07087476552 -0.02554549091 0.5279999971
0.07173525542 -0.02554549091 0.5279999971
0.07232075185 -0.02544872835 0.5260000229
0.07289974391 -0.0253519658 0.5240000486
0.07375370711 -0.0253519658 0.5240000486
0.07446529716 -0.02530358359 0.5230000019
0.07531762868 -0.02530358359 0.5230000019
0.07602433115 -0.02525520138 0.5220000148
0.07672777027 -0.02520681918 0.5210000277
0.07757685333 -0.02520681918 0.5210000277
0.07827539742 -0.02515843883 0.5200000405
0.07912284881 -0.02515843883 0.5200000405
0.07981651276 -0.02511005662 0.5190000534
0.08066233248 -0.02511005662 0.5190000534
0.08150815219 -0.02511005662 0.5190000534
0.0823539719 -0.02511005662 0.5190000534
0.08336009085 -0.02515843883 0.5200000405
0.08436948061 -0.02520681918 0.5210000277
0.08521856368 -0.02520681918 0.5210000277
0.08623284101 -0.02525520138 0.5220000148
0.08741720021 -0.0253519658 0.5240000486
0.08827117085 -0.0253519658 0.5240000486
0.08946530521 -0.02544872835 0.5260000229
0.09066596627 -0.02554549091 0.5279999971
0.09152645618 -0.02554549091 0.5279999971
0.09291186929 -0.02569063753 0.5310000181
-0.01642921008 -0.02529299445 0.5410000086
-0.01554753631 -0.02529299445 0.5410000086
-0.01466586255 -0.02529299445 0.5410000086
-0.01378418971 -0.02529299445 0.5410000086
-0.01290251594 -0.02529299445 0.5410000086
-0.0120208431 -0.02529299445 0.5410000086
-0.01111857966 -0.02524624206 0.5400000215
-0.0102385357 -0.02524624206 0.5400000215
-0.00935849268 -0.02524624206 0.5400000215
-0.008478448726 -0.02524624206 0.5400000215
-0.007598405704 -0.02524624206 0.5400000215
-0.00671836175 -0.02524624206 0.5400000215
-0.005838318262 -0.02524624206 0.5400000215
-0.004958274774 -0.02524624206 0.5400000215
-0.004078231286 -0.02524624206 0.5400000215
-0.003198188031 -0.02524624206 0.5400000215
-0.002318144543 -0.02524624206 0.5400000215
-0.001438100939 -0.02524624206 0.5400000215
-0.0005570239737 -0.02519948967 0.5390000343
0.0003213898744 -0.02519948967 0.5390000343
0.001199803781 -0.02519948967 0.5390000343
0.002078217687 -0.02519948967 0.5390000343
0.002962116851 -0.02524624206 0.5400000215
0.003842160571 -0.02524624206 0.5400000215
0.004722204059 -0.02524624206 0.5400000215
0.005602247547 -0.02524624206 0.5400000215
0.006482291035 -0.02524624206 0.5400000215
0.007362334523 -0.02524624206 0.5400000215
0.008242378011 -0.02524624206 0.5400000215
0.009122421965 -0.02524624206 0.5400000215
0.01000246499 -0.02524624206 0.5400000215
0.01088250894 -0.02524624206 0.5400000215
0.01176255196 -0.02524624206 0.5400000215
0.01264259592 -0.02524624206 0.5400000215
0.01352263894 -0.02524624206 0.5400000215
0.01440268196 -0.02524624206 0.5400000215
0.01528272592 -0.02524624206 0.5400000215
0.01616276987 -0.02524624206 0.5400000215
0.01704281196 -0.02524624206 0.5400000215
0.0178896673 -0.02519948967 0.5390000343
0.01876808144 -0.02519948967 0.5390000343
0.01964649372 -0.02519948967 0.5390000343
0.02048682794 -0.02515273727 0.5380000472
0.02136361226 -0.02515273727 0.5380000472
0.02219905704 -0.02510598488 0.5370000005
0.02307421155 -0.02510598488 0.5370000005
0.02394936606 -0.02510598488 0.5370000005
0.02477829345 -0.02505923249 0.5360000134
0.02565181814 -0.02505923249 0.5360000134
0.02647585422 -0.0250124801 0.5350000262
0.02724551596 -0.02491897531 0.533000052
0.02811415121 -0.02491897531 0.533000052
0.02892841026 -0.02487222292 0.5320000052
0.03233553469 -0.02482547052 0.5310000181
0.03313838691 -0.02477871999 0.530000031
0.03387382254 -0.02468521334 0.5279999971
0.03473431244 -0.02468521334 0.5279999971
0.03559479862 -0.02468521334 0.5279999971
0.0364552848 -0.02468521334 0.5279999971
0.03731577098 -0.02468521334 0.5279999971
0.03817625716 -0.02468521334 0.5279999971
0.04169703275 -0.02473196574 0.5290000439
0.04255914688 -0.02473196574 0.5290000439
0.04350334406 -0.02477871999 0.530000031
0.04445080087 -0.02482547052 0.5310000181
0.04531617835 -0.02482547052 0.5310000181
0.04626852646 -0.02487222292 0.5320000052
0.04722413421 -0.02491897531 0.533000052
0.0480927676 -0.02491897531 0.533000052
0.04905326292 -0.0249657277 0.5340000391
0.0500170216 -0.0250124801 0.5350000262
0.05088891461 -0.0250124801 0.5350000262
0.05185755715 -0.02505923249 0.5360000134
0.05273108184 -0.02505923249 0.5360000134
0.05360460654 -0.02505923249 0.5360000134
0.05457977206 -0.02510598488 0.5370000005
0.05545492843 -0.02510598488 0.5370000005
0.05633008108 -0.02510598488 0.5370000005
0.05720523745 -0.02510598488 0.5370000005
0.0580803901 -0.02510598488 0.5370000005
0.05895554647 -0.02510598488 0.5370000005
0.05983069912 -0.02510598488 0.5370000005
0.0605928041 -0.02505923249 0.5360000134
0.0614663288 -0.02505923249 0.5360000134
0.0623398535 -0.02505923249 0.5360000134
0.06309544295 -0.0250124801 0.5350000262
0.06396733969 -0.0250124801 0.5350000262
0.06471803784 -0.0249657277 0.5340000391
0.06558831036 -0.0249657277 0.5340000391
0.06633411348 -0.02491897531 0.533000052
0.06695058197 -0.02482547052 0.5310000181
0.06781595945 -0.02482547052 0.5310000181
0.06855199486 -0.02477871999 0.530000031
0.06941574067 -0.02477871999 0.530000031
0.07001428306 -0.02468521334 0.5279999971
0.07060629874 -0.02459170856 0.5260000229
0.0714635253 -0.02459170856 0.5260000229
0.07204577327 -0.02449820563 0.5240000486
0.07276061922 -0.02445145324 0.5230000019
0.07361295819 -0.02445145324 0.5230000019
0.07432291657 -0.02440469898 0.5220000148
0.07517362386 -0.02440469898 0.5220000148
0.07587869465 -0.02435794659 0.5210000277
0.07643323392 -0.02426444367 0.5190000534
0.07727905363 -0.02426444367 0.5190000534
0.07812487334 -0.02426444367 0.5190000534
0.07897069305 -0.02426444367 0.5190000534
0.07966271788 -0.02421769127 0.5180000067
0.08050691336 -0.02421769127 0.5180000067
0.0813511014 -0.02421769127 0.5180000067
0.08219528943 -0.02421769127 0.5180000067
0.08319979161 -0.02426444367 0.5190000534
0.08420754224 -0.02431119606 0.5200000405
0.08505499363 -0.02431119606 0.5200000405
0.08606763929 -0.02435794659 0.5210000277
0.08708354831 -0.02440469898 0.5220000148
0.0879342556 -0.02440469898 0.5220000148
0.08912513405 -0.02449820563 0.5240000486
0.09049425274 -0.02463846095 0.52700001
0.09135311097 -0.02463846095 0.52700001
0.0927368924 -0.02477871999 0.530000031
-0.01645957679 -0.02445665747 0.5420000553
-0.01554753631 -0.02441153489 0.5410000086
-0.01466586255 -0.02441153489 0.5410000086
-0.01378418971 -0.02441153489 0.5410000086
-0.01290251594 -0.02441153489 0.5410000086
-0.0120208431 -0.02441153489 0.5410000086
-0.01113917027 -0.02441153489 0.5410000086
-0.0102385357 -0.02436641231 0.5400000215
-0.00935849268 -0.02436641231 0.5400000215
-0.008478448726 -0.02436641231 0.5400000215
-0.007598405704 -0.02436641231 0.5400000215
-0.00671836175 -0.02436641231 0.5400000215
-0.005838318262 -0.02436641231 0.5400000215
-0.004958274774 -0.02436641231 0.5400000215
-0.004078231286 -0.02436641231 0.5400000215
-0.003198188031 -0.02436641231 0.5400000215
-0.002318144543 -0.02436641231 0.5400000215
-0.001438100939 -0.02436641231 0.5400000215
-0.0005570239737 -0.02432128973 0.5390000343
0.0003213898744 -0.02432128973 0.5390000343
0.001199803781 -0.02432128973 0.5390000343
0.002078217687 -0.02432128973 0.5390000343
0.002962116851 -0.02436641231 0.5400000215
0.003842160571 -0.02436641231 0.5400000215
0.004722204059 -0.02436641231 0.5400000215
0.005602247547 -0.02436641231 0.5400000215
0.006482291035 -0.02436641231 0.5400000215
0.007362334523 -0.02436641231 0.5400000215
0.008242378011 -0.02436641231 0.5400000215
0.009122421965 -0.02436641231 0.5400000215
0.01000246499 -0.02436641231 0.5400000215
0.01088250894 -0.02436641231 0.5400000215
0.01176255196 -0.02436641231 0.5400000215
0.0126660075 -0.02441153489 0.5410000086
0.01354768127 -0.02441153489 0.5410000086
0.01442935411 -0.02441153489 0.5410000086
0.01528272592 -0.02436641231 0.5400000215
0.01616276987 -0.02436641231 0.5400000215
0.01704281196 -0.02436641231 0.5400000215
0.0178896673 -0.02432128973 0.5390000343
0.01876808144 -0.02432128973 0.5390000343
0.01964649372 -0.02432128973 0.5390000343
0.02048682794 -0.02427616715 0.5380000472
0.02136361226 -0.02427616715 0.5380000472
0.02219905704 -0.02423104458 0.5370000005
0.02307421155 -0.02423104458 0.5370000005
0.02394936606 -0.02423104458 0.5370000005
0.02477829345 -0.02418592013 0.5360000134
0.02560395934 -0.02414079756 0.5350000262
0.02647585422 -0.02414079756 0.5350000262
0.02724551596 -0.02405055054 0.533000052
0.02811415121 -0.02405055054 0.533000052
0.02892841026 -0.02400542796 0.5320000052
0.03313838691 -0.0239151828 0.530000031
0.03387382254 -0.02382493578 0.5279999971
0.03473431244 -0.02382493578 0.5279999971
0.03559479862 -0.02382493578 0.5279999971
0.0364552848 -0.02382493578 0.5279999971
0.03731577098 -0.02382493578 0.5279999971
0.03810395673 -0.0237798132 0.52700001
0.04169703275 -0.02387005836 0.5290000439
0.04255914688 -0.02387005836 0.5290000439
0.04342126474 -0.02387005836 0.5290000439
0.04445080087 -0.02396030538 0.5310000181
0.04531617835 -0.02396030538 0.5310000181
0.04618155584 -0.02396030538 0.5310000181
0.0471355319 -0.02400542796 0.5320000052
0.04800254107 -0.02400542796 0.5320000052
0.04896140471 -0.02405055054 0.533000052
0.0498300381 -0.02405055054 0.533000052
0.05088891461 -0.02414079756 0.5350000262
0.05176081136 -0.02414079756 0.5350000262
0.05263270438 -0.02414079756 0.5350000262
0.05360460654 -0.02418592013 0.5360000134
0.05447813123 -0.02418592013 0.5360000134
0.05535165593 -0.02418592013 0.5360000134
0.05622518063 -0.02418592013 0.5360000134
0.05709870532 -0.02418592013 0.5360000134
0.05797223002 -0.02418592013 0.5360000134
0.05884575471 -0.02418592013 0.5360000134
0.05971927941 -0.02418592013 0.5360000134
0.0605928041 -0.02418592013 0.5360000134
0.0614663288 -0.02418592013 0.5360000134
0.06222354621 -0.02414079756 0.5350000262
0.06297750771 -0.02409567311 0.5340000391
0.06384777278 -0.02409567311 0.5340000391
0.0645968467 -0.02405055054 0.533000052
0.06546548009 -0.02405055054 0.533000052
0.06608521193 -0.02396030538 0.5310000181
0.06682449579 -0.0239151828 0.530000031
0.06768824905 -0.0239151828 0.530000031
0.0682933107 -0.02382493578 0.5279999971
0.06915379316 -0.02382493578 0.5279999971
0.06974907219 -0.02373469062 0.5260000229
0.07047206908 -0.02368956804 0.5250000358
0.07132767141 -0.02368956804 0.5250000358
0.07190828025 -0.02359932102 0.5230000019
0.07262150198 -0.02355419844 0.5220000148
0.07347220927 -0.02355419844 0.5220000148
0.07403814793 -0.02346395142 0.5200000405
0.07488559932 -0.02346395142 0.5200000405
0.07558741421 -0.02341882885 0.5190000534
0.07628595829 -0.02337370627 0.5180000067
0.07713015378 -0.02337370627 0.5180000067
0.07797434181 -0.02337370627 0.5180000067
0.07881852984 -0.02337370627 0.5180000067
0.07966271788 -0.02337370627 0.5180000067
0.0803514868 -0.02332858369 0.5170000196
0.08119405061 -0.02332858369 0.5170000196
0.08203660697 -0.02332858369 0.5170000196
0.08287917078 -0.02332858369 0.5170000196
0.08388367295 -0.02337370627 0.5180000067
0.08472786099 -0.02337370627 0.5180000067
0.08573725075 -0.02341882885 0.5190000534
0.08691672236 -0.023509074 0.5210000277
0.08776579797 -0.023509074 0.5210000277
0.08895504475 -0.02359932102 0.5230000019
0.09015082568 -0.02368956804 0.5250000358
0.09100642055 -0.02368956804 0.5250000358
0.09238694608 -0.02382493578 0.5279999971
-0.01645957679 -0.02357356995 0.5420000553
-0.01554753631 -0.02353007533 0.5410000086
-0.01466586255 -0.02353007533 0.5410000086
-0.01378418971 -0.02353007533 0.5410000086
-0.01290251594 -0.02353007533 0.5410000086
-0.0120208431 -0.02353007533 0.5410000086
-0.01113917027 -0.02353007533 0.5410000086
-0.0102385357 -0.02348658256 0.5400000215
-0.00935849268 -0.02348658256 0.5400000215
-0.008478448726 -0.02348658256 0.5400000215
-0.007598405704 -0.02348658256 0.5400000215
-0.00671836175 -0.02348658256 0.5400000215
-0.005838318262 -0.02348658256 0.5400000215
-0.004958274774 -0.02348658256 0.5400000215
-0.004078231286 -0.02348658256 0.5400000215
-0.003198188031 -0.02348658256 0.5400000215
-0.002318144543 -0.02348658256 0.5400000215
-0.001438100939 -0.02348658256 0.5400000215
-0.0005570239737 -0.0234430898 0.5390000343
0.0003213898744 -0.0234430898 0.5390000343
0.001199803781 -0.0234430898 0.5390000343
0.002078217687 -0.0234430898 0.5390000343
0.002956631361 -0.0234430898 0.5390000343
0.003835045267 -0.0234430898 0.5390000343
0.004722204059 -0.02348658256 0.5400000215
0.005602247547 -0.02348658256 0.5400000215
0.006482291035 -0.02348658256 0.5400000215
0.007362334523 -0.02348658256 0.5400000215
0.008242378011 -0.02348658256 0.5400000215
0.009122421965 -0.02348658256 0.5400000215
0.01000246499 -0.02348658256 0.5400000215
0.01088250894 -0.02348658256 0.5400000215
0.01176255196 -0.02348658256 0.5400000215
0.0126660075 -0.02353007533 0.5410000086
0.01354768127 -0.02353007533 0.5410000086
0.01442935411 -0.02353007533 0.5410000086
0.01531102788 -0.02353007533 0.5410000086
0.01616276987 -0.02348658256 0.5400000215
0.01704281196 -0.02348658256 0.5400000215
0.01792285591 -0.02348658256 0.5400000215
0.01876808144 -0.0234430898 0.5390000343
0.01964649372 -0.0234430898 0.5390000343
0.02052490786 -0.0234430898 0.5390000343
0.021403322 -0.0234430898 0.5390000343
0.02224039659 -0.02339959517 0.5380000472
0.02307421155 -0.02335610241 0.5370000005
0.02394936606 -0.02335610241 0.5370000005
0.02477829345 -0.02331260778 0.5360000134
0.02560395934 -0.02326911315 0.5350000262
0.02647585422 -0.02326911315 0.5350000262
0.02729663067 -0.02322562039 0.5340000391
0.02816689573 -0.02322562039 0.5340000391
0.02892841026 -0.023138633 0.5320000052
0.03313838691 -0.02305164747 0.530000031
0.03393797949 -0.02300815098 0.5290000439
0.03480009735 -0.02300815098 0.5290000439
0.03559479862 -0.02296465822 0.5279999971
0.0364552848 -0.02296465822 0.5279999971
0.03731577098 -0.02296465822 0.5279999971
0.04169703275 -0.02300815098 0.5290000439
0.04255914688 -0.02300815098 0.5290000439
0.04342126474 -0.02300815098 0.5290000439
0.04436709359 -0.02305164747 0.530000031
0.0452308394 -0.02305164747 0.530000031
0.04618155584 -0.02309514023 0.5310000181
0.0471355319 -0.023138633 0.5320000052
0.04800254107 -0.023138633 0.5320000052
0.04896140471 -0.02318212762 0.533000052
0.0498300381 -0.02318212762 0.533000052
0.05079379305 -0.02322562039 0.5340000391
0.05176081136 -0.02326911315 0.5350000262
0.05263270438 -0.02326911315 0.5350000262
0.05360460654 -0.02331260778 0.5360000134
0.05447813123 -0.02331260778 0.5360000134
0.05535165593 -0.02331260778 0.5360000134
0.05622518063 -0.02331260778 0.5360000134
0.05709870532 -0.02331260778 0.5360000134
0.05797223002 -0.02331260778 0.5360000134
0.05884575471 -0.02331260778 0.5360000134
0.05971927941 -0.02331260778 0.5360000134
0.0605928041 -0.02331260778 0.5360000134
0.0614663288 -0.02331260778 0.5360000134
0.06222354621 -0.02326911315 0.5350000262
0.06297750771 -0.02322562039 0.5340000391
0.06384777278 -0.02322562039 0.5340000391
0.0645968467 -0.02318212762 0.533000052
0.06546548009 -0.02318212762 0.533000052
0.06608521193 -0.02309514023 0.5310000181
0.06682449579 -0.02305164747 0.530000031
0.06768824905 -0.02305164747 0.530000031
0.0682933107 -0.02296465822 0.5279999971
0.06915379316 -0.02296465822 0.5279999971
0.06974907219 -0.02287767082 0.5260000229
0.07047206908 -0.02283417806 0.5250000358
0.07132767141 -0.02283417806 0.5250000358
0.07190828025 -0.02274719067 0.5230000019
0.07262150198 -0.02270369604 0.5220000148
0.07347220927 -0.02270369604 0.5220000148
0.07403814793 -0.02261670865 0.5200000405
0.07488559932 -0.02261670865 0.5200000405
0.07558741421 -0.02257321589 0.5190000534
0.07628595829 -0.02252972126 0.5180000067
0.07713015378 -0.02252972126 0.5180000067
0.07797434181 -0.02252972126 0.5180000067
0.07881852984 -0.02252972126 0.5180000067
0.07966271788 -0.02252972126 0.5180000067
0.0803514868 -0.0224862285 0.5170000196
0.08119405061 -0.0224862285 0.5170000196
0.08203660697 -0.0224862285 0.5170000196
0.08287917078 -0.0224862285 0.5170000196
0.08388367295 -0.02252972126 0.5180000067
0.08472786099 -0.02252972126 0.5180000067
0.08573725075 -0.02257321589 0.5190000534
0.08691672236 -0.02266020328 0.5210000277
0.08776579797 -0.02266020328 0.5210000277
0.08895504475 -0.02274719067 0.5230000019
0.09015082568 -0.02283417806 0.5250000358
0.09100642055 -0.02283417806 0.5250000358
0.09238694608 -0.02296465822 0.5279999971
-0.01645957679 -0.02269048244 0.5420000553
-0.01557627413 -0.02269048244 0.5420000553
-0.01466586255 -0.02264861763 0.5410000086
-0.01378418971 -0.02264861763 0.5410000086
-0.01290251594 -0.02264861763 0.5410000086
-0.0120208431 -0.02264861763 0.5410000086
-0.01113917027 -0.02264861763 0.5410000086
-0.0102574965 -0.02264861763 0.5410000086
-0.009375823662 -0.02264861763 0.5410000086
-0.008494149894 -0.02264861763 0.5410000086
-0.007598405704 -0.02260675281 0.5400000215
-0.00671836175 -0.02260675281 0.5400000215
-0.005838318262 -0.02260675281 0.5400000215
-0.004958274774 -0.02260675281 0.5400000215
-0.004078231286 -0.02260675281 0.5400000215
-0.003198188031 -0.02260675281 0.5400000215
-0.002318144543 -0.02260675281 0.5400000215
-0.001438100939 -0.02260675281 0.5400000215
-0.0005570239737 -0.02256488986 0.5390000343
0.0003213898744 -0.02256488986 0.5390000343
0.001199803781 -0.02256488986 0.5390000343
0.002078217687 -0.02256488986 0.5390000343
0.002956631361 -0.02256488986 0.5390000343
0.003835045267 -0.02256488986 0.5390000343
0.004722204059 -0.02260675281 0.5400000215
0.005602247547 -0.02260675281 0.5400000215
0.006482291035 -0.02260675281 0.5400000215
0.007362334523 -0.02260675281 0.5400000215
0.008242378011 -0.02260675281 0.5400000215
0.009122421965 -0.02260675281 0.5400000215
0.01000246499 -0.02260675281 0.5400000215
0.01088250894 -0.02260675281 0.5400000215
0.01176255196 -0.02260675281 0.5400000215
0.0126660075 -0.02264861763 0.5410000086
0.01354768127 -0.02264861763 0.5410000086
0.01442935411 -0.02264861763 0.5410000086
0.01531102788 -0.02264861763 0.5410000086
0.01619270071 -0.02264861763 0.5410000086
0.01707437448 -0.02264861763 0.5410000086
0.01792285591 -0.02260675281 0.5400000215
0.01880289987 -0.02260675281 0.5400000215
0.01968294382 -0.02260675281 0.5400000215
0.02052490786 -0.02256488986 0.5390000343
0.021403322 -0.02256488986 0.5390000343
0.02224039659 -0.02252302505 0.5380000472
0.02307421155 -0.02248116024 0.5370000005
0.02394936606 -0.02248116024 0.5370000005
0.02477829345 -0.02243929543 0.5360000134
0.02560395934 -0.02239743061 0.5350000262
0.02647585422 -0.02239743061 0.5350000262
0.02729663067 -0.02235556766 0.5340000391
0.02816689573 -0.02235556766 0.5340000391
0.02892841026 -0.02227183804 0.5320000052
0.02973940782 -0.02222997509 0.5310000181
0.03393797949 -0.02214624546 0.5290000439
0.03480009735 -0.02214624546 0.5290000439
0.03559479862 -0.02210438065 0.5279999971
0.0364552848 -0.02210438065 0.5279999971
0.04169703275 -0.02214624546 0.5290000439
0.04255914688 -0.02214624546 0.5290000439
0.04342126474 -0.02214624546 0.5290000439
0.04436709359 -0.02218811028 0.530000031
0.0452308394 -0.02218811028 0.530000031
0.04618155584 -0.02222997509 0.5310000181
0.0471355319 -0.02227183804 0.5320000052
0.04800254107 -0.02227183804 0.5320000052
0.04896140471 -0.02231370285 0.533000052
0.04992352799 -0.02235556766 0.5340000391
0.05079379305 -0.02235556766 0.5340000391
0.05176081136 -0.02239743061 0.5350000262
0.05263270438 -0.02239743061 0.5350000262
0.0535045974 -0.02239743061 0.5350000262
0.05447813123 -0.02243929543 0.5360000134
0.05535165593 -0.02243929543 0.5360000134
0.05622518063 -0.02243929543 0.5360000134
0.05709870532 -0.02243929543 0.5360000134
0.05797223002 -0.02243929543 0.5360000134
0.05884575471 -0.02243929543 0.5360000134
0.05960786343 -0.02239743061 0.5350000262
0.06047975644 -0.02239743061 0.5350000262
0.06135165319 -0.02239743061 0.5350000262
0.06210724637 -0.02235556766 0.5340000391
0.06285957247 -0.02231370285 0.533000052
0.06372820586 -0.02231370285 0.533000052
0.06435445696 -0.02222997509 0.5310000181
0.06521983445 -0.02222997509 0.5310000181
0.06596074998 -0.02218811028 0.530000031
0.06657233089 -0.02210438065 0.5279999971
0.0674328208 -0.02210438065 0.5279999971
0.06816396117 -0.02206251584 0.52700001
0.0690228194 -0.02206251584 0.52700001
0.06961647421 -0.02197878808 0.5250000358
0.07020360231 -0.02189506032 0.5230000019
0.07105594128 -0.02189506032 0.5230000019
0.07177078724 -0.02185319364 0.5220000148
0.07248237729 -0.02181133069 0.5210000277
0.07333145291 -0.02181133069 0.5210000277
0.07389577478 -0.02172760107 0.5190000534
0.07474159449 -0.02172760107 0.5190000534
0.07558741421 -0.02172760107 0.5190000534
0.07628595829 -0.02168573812 0.5180000067
0.07713015378 -0.02168573812 0.5180000067
0.07782381028 -0.0216438733 0.5170000196
0.07866636664 -0.0216438733 0.5170000196
0.07950893044 -0.0216438733 0.5170000196
0.0803514868 -0.0216438733 0.5170000196
0.08119405061 -0.0216438733 0.5170000196
0.08203660697 -0.0216438733 0.5170000196
0.08287917078 -0.0216438733 0.5170000196
0.08388367295 -0.02168573812 0.5180000067
0.08472786099 -0.02168573812 0.5180000067
0.08573725075 -0.02172760107 0.5190000534
0.08674988896 -0.02176946588 0.5200000405
0.08759734035 -0.02176946588 0.5200000405
0.08878496289 -0.02185319364 0.5220000148
0.0899791047 -0.02193692327 0.5240000486
0.09083307534 -0.02193692327 0.5240000486
0.09203699231 -0.02202065289 0.5260000229
0.09289421886 -0.02202065289 0.5260000229
-0.01645957679 -0.02180739306 0.5420000553
-0.01557627413 -0.02180739306 0.5420000553
-0.01469297148 -0.02180739306 0.5420000553
-0.0138096679 -0.02180739306 0.5420000553
-0.01292636618 -0.02180739306 0.5420000553
-0.0120430626 -0.02180739306 0.5420000553
-0.01115975995 -0.02180739306 0.5420000553
-0.0102574965 -0.02176715806 0.5410000086
-0.009375823662 -0.02176715806 0.5410000086
-0.008494149894 -0.02176715806 0.5410000086
-0.007612477057 -0.02176715806 0.5410000086
-0.006730803754 -0.02176715806 0.5410000086
-0.005849130452 -0.02176715806 0.5410000086
-0.004958274774 -0.02172692306 0.5400000215
-0.004078231286 -0.02172692306 0.5400000215
-0.003198188031 -0.02172692306 0.5400000215
-0.002318144543 -0.02172692306 0.5400000215
-0.001438100939 -0.02172692306 0.5400000215
-0.0005580573925 -0.02172692306 0.5400000215
0.0003219861537 -0.02172692306 0.5400000215
0.001199803781 -0.02168668993 0.5390000343
0.002078217687 -0.02168668993 0.5390000343
0.002956631361 -0.02168668993 0.5390000343
0.003835045267 -0.02168668993 0.5390000343
0.004722204059 -0.02172692306 0.5400000215
0.005602247547 -0.02172692306 0.5400000215
0.006482291035 -0.02172692306 0.5400000215
0.007362334523 -0.02172692306 0.5400000215
0.008242378011 -0.02172692306 0.5400000215
0.009122421965 -0.02172692306 0.5400000215
0.01000246499 -0.02172692306 0.5400000215
0.01088250894 -0.02172692306 0.5400000215
0.01176255196 -0.02172692306 0.5400000215
0.0126660075 -0.02176715806 0.5410000086
0.01354768127 -0.02176715806 0.5410000086
0.01442935411 -0.02176715806 0.5410000086
0.01531102788 -0.02176715806 0.5410000086
0.01619270071 -0.02176715806 0.5410000086
0.01707437448 -0.02176715806 0.5410000086
0.01792285591 -0.02172692306 0.5400000215
0.01880289987 -0.02172692306 0.5400000215
0.01968294382 -0.02172692306 0.5400000215
0.02052490786 -0.02168668993 0.5390000343
0.021403322 -0.02168668993 0.5390000343
0.02224039659 -0.02164645493 0.5380000472
0.02307421155 -0.02160621993 0.5370000005
0.02394936606 -0.02160621993 0.5370000005
0.02477829345 -0.02156598307 0.5360000134
0.02560395934 -0.02152574807 0.5350000262
0.02647585422 -0.02152574807 0.5350000262
0.02729663067 -0.02148551308 0.5340000391
0.02816689573 -0.02148551308 0.5340000391
0.02892841026 -0.02140504308 0.5320000052
0.02973940782 -0.02136480808 0.5310000181
0.03060478345 -0.02136480808 0.5310000181
0.04075771943 -0.02124410309 0.5279999971
0.04169703275 -0.02128433809 0.5290000439
0.04255914688 -0.02128433809 0.5290000439
0.04342126474 -0.02128433809 0.5290000439
0.04436709359 -0.02132457495 0.530000031
0.0452308394 -0.02132457495 0.530000031
0.04618155584 -0.02136480808 0.5310000181
0.0471355319 -0.02140504308 0.5320000052
0.04800254107 -0.02140504308 0.5320000052
0.0488695465 -0.02140504308 0.5320000052
0.04973655194 -0.02140504308 0.5320000052
0.05069867522 -0.02144527808 0.533000052
0.05156731233 -0.02144527808 0.533000052
0.05243594572 -0.02144527808 0.533000052
0.05340459198 -0.02148551308 0.5340000391
0.05427485704 -0.02148551308 0.5340000391
0.05514512211 -0.02148551308 0.5340000391
0.05601538718 -0.02148551308 0.5340000391
0.05688565224 -0.02148551308 0.5340000391
0.05775592104 -0.02148551308 0.5340000391
0.0586261861 -0.02148551308 0.5340000391
0.05949645117 -0.02148551308 0.5340000391
0.06025366485 -0.02144527808 0.533000052
0.06112230197 -0.02144527808 0.533000052
0.06187463179 -0.02140504308 0.5320000052
0.06262370199 -0.02136480808 0.5310000181
0.06348907948 -0.02136480808 0.5310000181
0.06423325837 -0.02132457495 0.530000031
0.06509700418 -0.02132457495 0.530000031
0.06571184844 -0.02124410309 0.5279999971
0.06644624472 -0.02120386809 0.52700001
0.06730510294 -0.02120386809 0.52700001
0.06790527701 -0.0211233981 0.5250000358
0.06876087189 -0.0211233981 0.5250000358
0.06948386878 -0.0210831631 0.5240000486
0.07006937265 -0.0210026931 0.5220000148
0.07092007995 -0.0210026931 0.5220000148
0.07163329422 -0.0209624581 0.5210000277
0.0723432526 -0.02092222311 0.5200000405
0.07319070399 -0.02092222311 0.5200000405
0.07389577478 -0.02088198811 0.5190000534
0.07474159449 -0.02088198811 0.5190000534
0.07544177026 -0.02084175311 0.5180000067
0.07613869011 -0.02080151811 0.5170000196
0.07698124647 -0.02080151811 0.5170000196
0.07782381028 -0.02080151811 0.5170000196
0.07866636664 -0.02080151811 0.5170000196
0.07935514301 -0.02076128311 0.5160000324
0.08019607514 -0.02076128311 0.5160000324
0.08103700727 -0.02076128311 0.5160000324
0.08187793195 -0.02076128311 0.5160000324
0.08287917078 -0.02080151811 0.5170000196
0.08388367295 -0.02084175311 0.5180000067
0.08472786099 -0.02084175311 0.5180000067
0.08573725075 -0.02088198811 0.5190000534
0.08674988896 -0.02092222311 0.5200000405
0.08759734035 -0.02092222311 0.5200000405
0.08878496289 -0.0210026931 0.5220000148
0.0899791047 -0.0210831631 0.5240000486
0.09083307534 -0.0210831631 0.5240000486
0.09203699231 -0.02116363309 0.5260000229
0.09289421886 -0.02116363309 0.5260000229
-0.01645957679 -0.02092430554 0.5420000553
-0.01557627413 -0.02092430554 0.5420000553
-0.01469297148 -0.02092430554 0.5420000553
-0.0138096679 -0.02092430554 0.5420000553
-0.01292636618 -0.02092430554 0.5420000553
-0.0120430626 -0.02092430554 0.5420000553
